ply
format ascii 1.0
element vertex 1848
property float x
property float y
property float z
property uchar red
property uchar green
property uchar blue
end_header
691 -771 2683 185 184 190
703 -771 2681 185 184 190
714 -771 2680 184 183 189
725 -771 2676 182 181 186
736 -771 2675 181 180 185
747 -771 2673 180 179 184
758 -770 2669 179 178 183
769 -770 2667 176 175 180
780 -771 2665 175 173 178
791 -770 2661 175 173 176
802 -770 2660 173 171 172
813 -770 2657 169 169 167
824 -770 2654 167 167 167
835 -770 2652 166 166 166
847 -770 2650 162 162 162
858 -770 2648 161 161 161
868 -770 2644 161 161 161
879 -770 2641 161 161 160
890 -769 2636 157 159 158
900 -768 2630 157 157 155
906 -764 2613 155 157 156
910 -758 2591 173 177 178
659 -542 1851 150 154 155
663 -539 1839 201 206 209
669 -538 1832 198 203 207
676 -537 1828 197 207 208
685 -538 1831 206 207 210
697 -541 1839 112 129 145
1147 -777 2600 19 22 29
1157 -777 2596 11 17 23
1164 -774 2583 93 102 111
1171 -771 2570 105 115 117
1175 -766 2550 95 120 146
1153 -659 2146 95 103 122
1152 -653 2123 93 110 128
780 -394 1247 37 52 59
786 -394 1245 207 223 229
793 -394 1245 70 81 97
799 -395 1243 56 69 85
770 -369 1155 159 168 167
760 -363 1131 159 168 170
759 -359 1119 161 169 171
758 -357 1108 164 172 174
755 -353 1094 161 172 169
754 -350 1082 173 182 182
755 -348 1074 63 68 73
756 -346 1066 53 60 66
757 -344 1058 21 29 35
-2160 -778 2203 110 104 90
-2156 -781 2218 109 104 89
-2149 -783 2229 111 105 91
-2145 -785 2244 109 103 89
-2140 -788 2258 114 108 94
-2134 -790 2271 115 112 97
-2128 -792 2284 118 112 96
-2124 -795 2299 127 121 106
-2119 -798 2313 125 120 106
-2113 -800 2326 134 131 117
-2112 -804 2345 139 135 122
-2109 -807 2361 137 133 121
-2108 -811 2380 139 136 121
-2103 -814 2395 139 136 119
-2099 -817 2410 136 133 117
-2093 -819 2424 140 137 122
-2090 -823 2441 139 136 121
-2086 -826 2457 140 137 122
-2083 -830 2475 136 134 119
-2078 -833 2490 134 136 115
-2073 -836 2505 128 126 112
-2065 -837 2517 116 86 50
-2057 -839 2528 123 78 45
-2042 -838 2531 123 77 43
-2031 -839 2540 124 75 42
-2013 -836 2538 127 78 45
-1993 -833 2535 129 81 45
-1959 -829 2535 130 80 46
-1940 -826 2532 132 84 48
-1921 -823 2529 132 82 47
-1905 -821 2529 133 83 46
-1887 -819 2528 135 83 46
-1537 -764 2459 157 95 54
-1504 -759 2451 156 93 52
-1332 -732 2408 164 96 58
-1150 -706 2370 117 71 57
-1147 -710 2388 111 77 78
-1137 -711 2393 170 105 73
-1127 -711 2396 181 110 73
-1116 -711 2399 174 109 74
-234 -249 880 60 45 48
-230 -249 880 149 100 100
-226 -248 878 201 142 137
-222 -248 878 223 156 157
-218 -248 877 239 178 176
-214 -247 875 239 178 178
-210 -246 873 231 169 170
-206 -246 871 218 152 154
-201 -245 869 202 133 136
-197 -244 868 175 101 106
-193 -244 867 204 138 140
-189 -243 865 224 179 179
-186 -243 865 222 175 177
-182 -242 863 219 170 173
-177 -242 861 217 170 173
-173 -241 858 226 176 180
-169 -240 856 228 180 182
-165 -240 855 234 184 187
-162 -240 855 245 189 193
-158 -239 854 242 184 189
-154 -239 854 241 183 187
-151 -239 853 234 176 180
-147 -238 852 240 183 189
-143 -238 852 236 177 183
-140 -238 852 240 179 184
-136 -238 852 241 179 184
-133 -238 852 242 179 187
-129 -238 854 242 179 187
-126 -238 854 242 178 186
-122 -238 855 246 181 189
-119 -239 857 244 179 187
-116 -239 858 246 181 189
-112 -239 859 247 182 190
-109 -239 860 242 175 182
-106 -240 861 241 174 181
-102 -240 862 230 161 164
-99 -241 865 204 129 135
-95 -241 866 176 94 103
-92 -242 869 197 106 120
-89 -243 874 201 108 126
-86 -244 877 206 115 133
-82 -244 878 224 133 151
-79 -244 880 215 125 143
-75 -244 880 195 106 124
-72 -244 880 188 96 117
-68 -244 881 216 127 144
-65 -244 881 233 149 164
-61 -244 881 250 168 181
-57 -244 881 248 164 178
-54 -244 880 219 140 153
-50 -243 878 181 111 122
-46 -242 874 112 90 88
-42 -239 863 111 93 89
-76 -572 2066 220 217 226
-67 -570 2058 220 219 225
-58 -569 2053 219 218 224
-50 -568 2052 219 218 224
-42 -568 2050 220 219 225
-33 -568 2050 220 219 225
-25 -567 2049 221 220 228
-17 -567 2049 221 219 230
-8 -567 2048 221 219 230
0 -567 2049 220 218 229
8 -568 2052 221 221 231
17 -570 2058 159 152 159
147 -770 2779 158 152 156
158 -771 2780 176 170 174
170 -771 2780 176 171 175
181 -771 2780 175 169 173
192 -770 2777 176 171 175
203 -770 2777 175 170 174
215 -770 2776 178 173 177
226 -770 2776 177 172 176
237 -770 2774 179 174 178
249 -770 2773 180 175 179
260 -769 2769 181 176 180
270 -768 2765 182 178 182
282 -767 2762 180 178 181
293 -767 2761 182 180 183
304 -767 2760 186 181 185
315 -767 2757 184 182 185
326 -767 2756 184 182 185
338 -767 2756 185 185 187
348 -766 2751 185 183 184
360 -766 2750 186 184 186
371 -765 2747 186 184 187
382 -765 2745 185 183 186
393 -764 2742 187 185 188
404 -764 2740 190 188 192
415 -764 2739 187 185 189
426 -764 2738 188 186 191
437 -764 2734 189 187 192
448 -764 2733 188 186 191
459 -763 2729 187 185 190
470 -763 2727 187 185 190
481 -762 2722 188 186 191
492 -761 2720 189 187 192
502 -760 2714 189 187 192
513 -760 2712 190 188 193
524 -759 2708 189 187 192
535 -759 2706 189 187 192
546 -759 2705 189 187 192
557 -759 2703 188 186 191
568 -759 2702 188 186 192
579 -759 2698 188 185 192
590 -758 2696 187 185 192
601 -758 2694 187 186 192
612 -758 2692 187 185 191
624 -759 2692 186 185 191
635 -759 2692 185 184 190
647 -760 2693 186 185 191
658 -760 2692 185 184 190
670 -760 2691 185 184 190
680 -760 2686 185 184 190
691 -760 2684 184 183 189
702 -759 2680 185 184 190
713 -759 2678 183 182 188
723 -758 2673 183 184 188
735 -759 2673 182 182 187
746 -758 2670 180 179 184
757 -758 2667 179 178 183
769 -759 2668 176 177 181
780 -759 2665 175 176 179
790 -758 2661 174 175 177
802 -759 2660 171 171 172
813 -759 2658 169 171 170
825 -759 2658 166 167 166
835 -758 2652 166 166 166
846 -759 2651 163 163 163
857 -758 2647 164 164 164
868 -758 2644 161 161 160
879 -758 2642 159 159 159
889 -757 2635 158 158 158
899 -756 2629 155 155 153
903 -750 2606 156 158 157
657 -533 1849 152 156 157
662 -531 1838 201 206 208
668 -529 1831 194 204 206
675 -528 1827 198 206 209
684 -530 1830 205 210 213
696 -533 1837 109 130 147
1146 -765 2600 21 24 31
1156 -765 2595 12 17 20
1163 -762 2583 91 99 110
1169 -759 2568 106 115 118
1174 -754 2550 99 120 143
1147 -641 2116 91 109 129
1145 -634 2091 77 113 129
1149 -632 2079 86 107 126
1151 -627 2062 91 109 124
759 -357 1130 159 167 169
756 -353 1116 161 169 171
757 -351 1107 161 169 171
755 -348 1095 165 174 173
754 -345 1083 125 130 133
756 -343 1076 43 46 49
757 -341 1068 21 27 31
756 -339 1058 9 18 23
1920 -793 2401 58 66 68
-2155 -765 2200 106 100 85
-2154 -769 2218 109 103 89
-2147 -771 2230 108 102 88
-2145 -774 2247 109 103 89
-2141 -777 2261 113 107 93
-2136 -779 2275 115 109 96
-2130 -781 2288 121 115 100
-2126 -784 2303 123 117 101
-2121 -786 2317 125 122 105
-2114 -788 2329 135 132 117
-2112 -792 2347 137 134 117
-2108 -795 2362 139 136 119
-2105 -798 2379 139 136 120
-2101 -801 2395 140 137 120
-2096 -804 2410 140 139 121
-2090 -806 2423 138 137 119
-2088 -810 2441 140 137 120
-2083 -813 2456 139 136 121
-2080 -816 2473 138 135 120
-2074 -819 2488 136 134 117
-2071 -822 2505 126 122 110
-2062 -824 2515 119 89 54
-2054 -825 2527 124 80 46
-2039 -824 2530 122 78 43
-2028 -825 2538 125 77 41
-2009 -822 2536 127 79 39
-1991 -820 2535 129 79 44
-1972 -817 2533 131 81 46
-1959 -817 2538 129 79 43
-1938 -813 2532 132 82 47
-1918 -810 2528 132 82 47
-1901 -808 2527 131 81 44
-1883 -805 2525 131 81 44
-1777 -790 2510 139 83 46
-1571 -759 2471 155 93 56
-1551 -755 2462 157 95 56
-1532 -750 2453 156 94 53
-1516 -748 2450 157 95 54
-1501 -746 2448 156 93 52
-1325 -717 2398 165 97 59
-1273 -706 2372 168 100 61
-1259 -704 2369 166 98 58
-1149 -695 2369 121 76 71
-1145 -699 2386 122 87 85
-1136 -700 2393 172 108 73
-1127 -700 2398 179 109 75
-1116 -700 2401 172 107 72
-234 -245 879 72 42 47
-230 -245 878 146 96 94
-226 -244 877 210 151 150
-222 -244 877 223 166 164
-218 -244 877 242 182 187
-214 -244 876 245 183 186
-210 -243 875 243 181 186
-206 -242 873 233 177 180
-202 -242 872 219 160 164
-198 -241 870 217 153 160
-194 -241 870 224 170 174
-190 -240 868 212 163 166
-186 -240 866 220 170 173
-182 -239 864 220 173 176
-178 -238 862 223 178 180
-173 -237 859 221 175 177
-169 -237 857 222 172 175
-165 -236 856 230 180 183
-162 -236 856 230 178 182
-158 -235 854 236 182 186
-154 -235 854 239 185 188
-151 -235 853 229 175 177
-147 -235 852 229 174 179
-143 -234 852 233 177 183
-140 -234 852 240 181 185
-136 -234 852 240 181 185
-133 -234 853 248 187 194
-129 -235 854 243 182 189
-126 -235 855 243 181 189
-123 -235 856 240 177 185
-119 -235 858 250 187 195
-116 -236 859 250 188 193
-112 -236 859 250 188 193
-109 -236 861 239 177 182
-106 -236 862 229 164 168
-102 -236 863 216 137 145
-99 -237 866 185 104 114
-96 -238 868 189 107 116
-92 -238 871 211 127 140
-89 -239 875 211 124 140
-86 -240 877 193 104 120
-82 -240 879 159 72 88
-79 -241 880 149 62 78
-75 -241 880 144 56 73
-72 -241 881 147 58 76
-68 -241 882 118 30 46
-65 -241 883 164 78 93
-61 -241 883 213 127 142
-57 -241 882 218 134 147
-54 -240 881 198 118 132
-50 -240 879 161 100 110
-46 -238 873 111 94 90
-42 -234 859 115 94 93
-84 -566 2074 219 216 225
-75 -562 2062 219 216 225
-67 -561 2057 219 218 224
-58 -560 2053 218 217 223
-50 -559 2051 218 218 225
-42 -559 2049 219 218 226
-33 -558 2048 219 219 227
-25 -558 2047 221 219 227
-17 -558 2047 221 220 228
-8 -558 2047 221 220 226
0 -559 2049 220 219 225
8 -559 2051 225 222 233
17 -561 2058 156 151 157
147 -758 2777 162 156 158
158 -758 2777 176 170 172
169 -759 2779 177 171 173
181 -759 2780 176 170 174
192 -758 2777 176 170 174
203 -759 2778 179 172 176
215 -758 2776 178 172 176
226 -759 2777 178 173 176
237 -758 2773 179 175 176
248 -758 2772 180 175 179
260 -758 2771 182 176 180
271 -757 2768 182 177 181
281 -756 2763 185 179 183
293 -756 2763 184 179 183
304 -755 2758 184 180 181
315 -755 2756 187 183 184
326 -754 2753 185 183 186
337 -754 2752 185 183 186
348 -753 2748 185 183 185
359 -753 2748 186 184 186
370 -753 2746 187 185 188
381 -753 2745 186 185 187
392 -752 2741 188 186 189
403 -752 2740 188 186 189
414 -752 2737 188 186 191
426 -752 2736 189 187 190
436 -751 2733 188 186 191
448 -751 2731 188 186 191
458 -750 2727 187 185 190
469 -751 2726 189 187 192
480 -750 2722 189 187 192
492 -750 2722 189 186 191
502 -749 2715 189 187 192
513 -749 2714 189 186 193
524 -748 2710 190 187 194
535 -748 2708 189 188 193
545 -747 2704 189 188 194
557 -748 2706 189 188 194
567 -747 2700 187 187 192
579 -747 2700 187 186 192
589 -746 2695 186 185 191
601 -747 2696 186 185 191
612 -747 2692 187 186 191
623 -747 2691 187 187 192
635 -747 2692 185 184 190
647 -749 2695 186 185 191
657 -748 2691 185 184 190
669 -749 2692 185 184 190
680 -748 2687 185 184 189
691 -748 2685 184 183 188
702 -748 2682 184 183 188
712 -747 2677 184 183 188
722 -746 2672 184 183 189
733 -746 2670 183 182 187
745 -746 2668 180 179 184
756 -746 2666 181 179 184
767 -747 2666 178 176 181
778 -747 2663 176 174 179
789 -746 2660 174 172 175
801 -747 2661 172 170 173
812 -747 2657 171 169 172
823 -746 2654 168 166 168
834 -746 2651 168 166 168
845 -746 2649 165 163 165
855 -746 2644 162 162 164
866 -746 2642 160 160 161
877 -746 2639 159 159 159
888 -745 2636 158 158 156
898 -744 2628 157 159 158
901 -738 2603 152 154 156
907 -733 2586 157 161 164
657 -525 1849 150 154 156
661 -522 1838 203 208 211
667 -521 1830 198 207 208
674 -520 1827 199 207 209
683 -521 1827 204 209 212
694 -523 1834 110 131 148
1146 -754 2603 22 25 34
1156 -753 2597 21 24 32
1163 -751 2585 85 93 106
1169 -747 2569 108 117 118
1173 -743 2550 102 121 141
471 -226 734 62 75 80
482 -230 745 90 103 110
487 -230 745 65 79 92
760 -352 1132 159 167 166
757 -348 1118 161 169 171
758 -346 1109 161 169 171
757 -343 1098 167 173 176
755 -340 1086 42 47 51
758 -339 1080 26 29 36
759 -338 1073 9 16 22
-2152 -753 2200 103 100 85
-2150 -756 2216 106 100 84
-2145 -758 2230 107 101 87
-2144 -762 2248 110 104 91
-2140 -765 2263 111 105 91
-2139 -769 2281 117 111 97
-2132 -770 2293 119 113 101
-2128 -773 2308 125 119 107
-2122 -775 2321 127 124 109
-2115 -777 2333 135 133 117
-2111 -780 2348 136 133 116
-2107 -783 2364 140 137 120
-2105 -786 2382 138 135 120
-2102 -790 2399 139 136 121
-2099 -793 2415 139 136 119
-2093 -795 2429 141 135 119
-2089 -798 2445 143 137 121
-2084 -801 2460 140 134 118
-2080 -804 2476 140 134 118
-2075 -807 2491 141 133 119
-2071 -810 2508 124 119 102
-2062 -811 2518 120 87 50
-2055 -814 2531 122 78 43
-2042 -813 2536 123 77 41
-2028 -813 2541 122 76 40
-2011 -811 2541 124 78 39
-1994 -809 2541 124 78 42
-1974 -806 2537 128 80 42
-1961 -805 2542 127 79 39
-1942 -802 2539 129 81 41
-1919 -798 2531 131 82 43
-1902 -796 2530 132 82 46
-1881 -792 2525 130 80 43
-1532 -740 2456 157 95 55
-1514 -736 2449 156 94 55
-1143 -687 2383 114 75 71
-1134 -688 2389 175 109 73
-1124 -688 2395 179 111 75
-1114 -689 2399 172 108 70
-233 -241 878 92 54 58
-230 -241 879 173 118 118
-226 -241 878 228 165 163
-222 -241 878 228 168 167
-218 -240 877 244 181 185
-214 -239 875 255 195 198
-210 -239 874 254 195 197
-206 -239 873 255 190 196
-202 -238 873 242 181 186
-198 -238 871 227 172 177
-194 -238 871 221 172 175
-190 -237 869 207 164 166
-186 -237 868 214 169 173
-182 -236 865 210 164 168
-178 -235 863 223 178 181
-173 -234 859 223 177 180
-169 -233 857 232 185 188
-165 -233 856 234 186 189
-162 -232 855 233 181 187
-158 -232 854 232 180 185
-154 -232 854 233 181 187
-150 -231 853 235 182 188
-147 -231 852 233 179 185
-143 -231 853 236 181 187
-140 -231 853 234 178 184
-136 -231 853 240 183 190
-133 -231 854 234 175 181
-129 -231 855 241 182 188
-126 -231 855 239 181 187
-122 -231 856 241 182 188
-119 -231 857 246 186 192
-116 -232 858 249 190 196
-112 -232 859 237 179 183
-109 -232 860 227 166 171
-105 -233 862 217 148 155
-102 -233 864 195 120 128
-99 -234 867 182 106 116
-96 -234 869 210 133 143
-92 -235 873 213 134 145
-89 -236 876 214 134 145
-86 -236 878 210 130 141
-82 -237 880 189 106 121
-79 -237 881 198 114 130
-75 -237 882 179 96 112
-72 -237 882 175 93 108
-68 -237 883 194 108 125
-65 -238 884 186 102 118
-61 -238 884 189 116 127
-57 -237 883 191 107 122
-54 -237 881 165 89 103
-50 -236 878 133 89 96
-46 -234 870 107 94 93
-94 -566 2109 220 217 226
-84 -556 2071 221 218 227
-75 -553 2061 220 217 226
-67 -552 2056 219 216 225
-58 -551 2054 219 216 225
-50 -551 2052 220 217 226
-42 -550 2049 219 217 226
-33 -550 2050 220 219 227
-25 -550 2048 220 217 228
-17 -550 2048 219 218 227
-8 -549 2047 219 218 226
0 -550 2048 219 218 226
8 -550 2049 223 219 233
147 -746 2778 165 160 161
158 -747 2779 174 169 170
169 -747 2779 177 171 173
181 -747 2779 176 170 174
192 -746 2777 177 171 175
203 -747 2777 177 172 176
214 -746 2775 177 172 176
226 -747 2776 177 172 176
237 -746 2772 180 174 176
248 -746 2772 182 176 180
259 -746 2770 181 176 180
270 -745 2766 184 179 183
281 -744 2761 183 179 183
292 -744 2761 182 180 183
303 -743 2756 184 179 183
314 -742 2754 186 181 185
325 -741 2750 185 181 185
336 -741 2749 186 183 186
347 -741 2747 186 183 185
359 -741 2746 186 183 187
370 -741 2745 185 183 187
381 -742 2746 185 184 189
392 -741 2744 186 184 187
403 -741 2740 188 186 189
414 -741 2739 187 185 190
425 -740 2737 187 185 190
436 -739 2732 187 185 191
447 -739 2730 188 186 191
458 -739 2728 188 186 191
469 -739 2726 188 185 192
480 -738 2722 187 184 191
491 -738 2720 188 187 192
502 -737 2716 188 187 193
512 -737 2713 186 187 192
524 -737 2712 186 187 192
534 -736 2709 187 186 192
545 -736 2706 188 188 193
557 -736 2705 189 188 194
567 -736 2701 187 186 192
578 -735 2698 187 186 192
589 -734 2694 187 186 192
600 -735 2693 187 186 192
611 -734 2690 188 185 192
623 -735 2692 188 185 192
634 -735 2690 185 184 190
645 -736 2690 185 184 189
657 -736 2691 185 184 190
668 -737 2690 185 184 190
679 -736 2686 185 186 188
690 -736 2683 183 184 186
701 -736 2681 183 184 186
711 -735 2677 183 184 186
721 -734 2671 184 183 188
733 -734 2669 181 180 185
744 -734 2667 180 179 184
754 -734 2663 180 178 181
766 -735 2664 179 177 182
778 -735 2663 175 173 178
789 -735 2660 175 173 176
800 -735 2658 172 170 173
811 -734 2655 170 168 173
822 -734 2652 170 168 171
832 -734 2648 167 165 168
843 -734 2646 164 162 165
854 -733 2641 164 162 165
866 -734 2642 162 161 162
876 -733 2637 158 159 158
887 -733 2633 157 159 156
896 -732 2627 156 156 154
900 -726 2603 155 157 156
906 -722 2585 152 158 158
657 -517 1850 150 154 155
660 -514 1837 205 211 213
666 -512 1829 197 206 208
673 -512 1826 201 208 211
682 -513 1827 206 210 213
693 -515 1834 112 134 148
1143 -741 2599 19 23 34
1154 -741 2595 13 20 29
1161 -738 2582 82 92 101
1167 -735 2567 104 115 118
1171 -731 2549 97 120 137
480 -228 755 83 92 101
487 -230 759 47 59 67
759 -346 1132 160 170 168
757 -343 1119 159 168 167
758 -341 1111 162 171 170
758 -339 1101 159 167 170
758 -336 1091 39 45 49
760 -335 1084 64 68 75
-2151 -741 2201 102 96 80
-2148 -744 2217 104 98 83
-2144 -746 2231 107 101 87
-2143 -750 2249 108 105 90
-2140 -753 2265 112 106 92
-2139 -757 2283 116 110 97
-2132 -758 2295 121 115 101
-2126 -761 2308 124 118 102
-2121 -763 2322 129 125 108
-2115 -765 2335 136 133 116
-2108 -767 2348 136 135 117
-2106 -770 2365 137 134 119
-2103 -774 2382 138 135 120
-2099 -777 2398 138 135 118
-2095 -779 2413 138 135 118
-2091 -782 2429 138 135 118
-2087 -785 2445 141 137 121
-2082 -788 2460 140 137 121
-2078 -791 2476 139 136 121
-2074 -794 2492 135 129 114
-2070 -798 2509 119 110 99
-2061 -799 2520 124 81 46
-2055 -801 2533 122 77 40
-2043 -801 2540 122 76 40
-2029 -801 2544 122 76 40
-2011 -799 2544 124 79 40
-1996 -797 2546 124 78 42
-1976 -794 2542 128 80 42
-1960 -793 2544 129 81 41
-1547 -730 2460 157 95 56
-1527 -726 2450 157 95 56
-1509 -723 2443 155 93 54
-1145 -672 2366 129 95 96
-1139 -675 2378 118 80 74
-1122 -677 2392 181 112 73
-234 -238 881 132 85 87
-230 -238 880 202 141 138
-226 -237 879 222 161 156
-222 -237 879 230 171 169
-218 -237 878 242 182 186
-214 -236 876 254 193 198
-210 -236 875 254 196 200
-206 -235 874 254 197 200
-202 -235 873 251 189 192
-198 -234 872 225 175 178
-194 -234 872 218 169 172
-190 -233 870 203 157 159
-186 -233 868 194 150 151
-182 -232 866 192 147 150
-177 -231 863 207 163 166
-173 -230 860 213 168 171
-169 -230 859 213 168 170
-165 -229 857 219 177 179
-162 -229 856 230 179 184
-158 -228 855 224 173 178
-154 -228 855 227 176 181
-150 -228 854 223 172 177
-147 -228 854 232 179 185
-143 -228 854 232 179 185
-140 -228 854 238 183 189
-136 -227 854 236 181 187
-133 -227 854 231 176 181
-129 -228 855 233 178 183
-126 -228 856 242 186 192
-122 -228 857 239 182 188
-119 -228 858 241 184 191
-116 -228 859 230 173 180
-112 -228 859 224 169 174
-109 -229 861 218 157 164
-105 -229 862 208 142 150
-102 -229 864 190 118 128
-99 -230 867 189 118 128
-96 -231 870 206 139 147
-92 -231 873 199 136 144
-89 -232 876 193 126 135
-86 -233 878 189 121 133
-82 -233 880 184 113 128
-79 -234 882 180 107 126
-75 -234 883 187 113 130
-72 -234 884 143 70 85
-68 -234 884 113 47 61
-65 -234 885 126 73 80
-61 -234 885 124 82 87
-57 -234 884 121 84 88
-54 -233 882 114 86 88
-45 -227 860 116 93 96
-93 -550 2082 220 217 226
-84 -545 2064 220 217 226
-75 -544 2058 219 216 225
-67 -543 2054 219 216 223
-58 -542 2053 219 216 225
-50 -542 2052 219 218 226
-42 -542 2050 219 218 227
-33 -542 2051 219 219 229
-25 -541 2049 220 218 229
-17 -541 2047 220 218 229
-8 -540 2046 220 218 229
0 -541 2047 220 218 229
8 -541 2050 225 223 236
146 -734 2777 164 158 162
158 -735 2779 173 167 171
169 -735 2779 177 171 175
181 -735 2780 175 169 173
192 -735 2779 176 170 174
203 -735 2778 175 170 174
214 -735 2777 178 173 177
226 -735 2777 179 174 178
237 -734 2774 179 177 179
248 -735 2775 181 176 180
259 -734 2771 181 177 181
270 -733 2768 183 179 181
281 -732 2762 183 180 181
292 -732 2762 184 180 182
303 -731 2757 184 180 182
314 -730 2753 187 182 186
325 -729 2749 187 181 186
336 -730 2750 187 182 188
347 -729 2747 187 182 188
358 -730 2747 188 183 189
370 -730 2746 185 183 188
381 -730 2746 187 185 190
392 -730 2744 186 185 190
403 -729 2739 187 185 190
414 -729 2738 187 185 191
425 -728 2736 187 185 190
436 -727 2731 185 184 190
447 -727 2729 188 185 192
458 -727 2727 188 185 192
469 -727 2725 188 186 191
479 -726 2722 187 185 190
490 -726 2719 188 186 191
501 -726 2716 190 188 192
512 -725 2714 189 188 193
523 -725 2710 187 186 192
534 -725 2708 189 188 194
544 -724 2704 188 187 193
556 -724 2704 187 186 191
566 -723 2699 187 186 192
578 -724 2700 186 185 191
588 -723 2693 186 185 191
599 -723 2693 187 186 192
610 -723 2690 187 186 192
622 -724 2692 187 186 192
633 -724 2690 187 186 191
645 -725 2692 187 186 191
656 -724 2689 184 185 190
667 -724 2685 184 185 190
678 -724 2683 185 184 190
689 -724 2682 184 183 189
700 -724 2681 183 182 188
711 -723 2676 184 183 189
721 -723 2673 182 183 188
732 -723 2669 182 181 187
743 -722 2665 181 180 185
754 -722 2663 179 178 183
766 -723 2664 177 175 180
777 -723 2663 176 174 179
788 -723 2661 175 173 178
799 -723 2658 172 170 175
810 -723 2656 169 169 172
821 -723 2653 168 168 170
832 -723 2650 167 165 168
843 -723 2647 164 162 165
854 -723 2645 162 161 164
866 -723 2644 161 160 161
876 -722 2638 160 160 160
886 -721 2633 159 159 157
895 -720 2626 158 158 154
901 -716 2608 154 156 154
905 -710 2585 152 156 156
657 -509 1852 151 155 154
661 -506 1839 208 214 215
666 -505 1831 204 211 213
673 -504 1827 205 210 213
681 -504 1826 210 215 219
693 -507 1834 113 132 147
1144 -730 2602 20 23 34
1154 -730 2597 16 21 27
1162 -728 2586 82 96 98
1169 -725 2573 101 116 117
1173 -721 2554 94 120 133
758 -341 1132 162 171 170
757 -338 1120 159 167 169
759 -336 1113 101 109 112
760 -335 1105 49 57 62
761 -332 1096 42 51 60
764 -332 1091 68 78 80
2103 -901 2951 73 81 84
-2158 -728 2192 98 91 75
-2151 -730 2203 101 95 79
-2148 -732 2219 101 96 77
-2142 -734 2232 105 99 83
-2141 -738 2250 109 103 87
-2138 -741 2266 112 105 89
-2138 -745 2285 116 110 94
-2131 -747 2297 121 114 98
-2128 -750 2313 124 117 101
-2126 -753 2330 131 125 109
-2119 -755 2342 136 134 119
-2112 -756 2354 136 133 118
-2111 -760 2373 137 134 119
-2105 -763 2387 138 135 118
-2100 -765 2401 138 135 118
-2095 -768 2416 139 137 122
-2091 -771 2432 137 134 119
-2086 -773 2447 139 136 121
-2082 -776 2463 137 134 119
-2077 -779 2478 137 134 119
-2073 -782 2494 134 128 112
-2071 -786 2513 118 105 83
-2063 -787 2524 120 77 42
-2055 -789 2536 121 75 41
-2045 -790 2545 124 78 42
-2028 -788 2546 123 77 41
-2009 -785 2543 124 79 40
-1992 -784 2544 123 78 38
-1973 -781 2541 128 80 40
-1955 -778 2539 128 80 40
-1937 -776 2538 131 81 43
-1917 -773 2534 132 82 45
-1544 -718 2457 157 95 54
-1144 -661 2364 138 106 111
-1136 -662 2373 139 98 91
-1129 -664 2383 177 112 74
-1121 -665 2391 176 112 74
-1110 -665 2393 173 108 70
-236 -233 876 134 85 78
-234 -234 881 152 97 92
-230 -234 881 208 144 142
-226 -234 881 235 172 167
-222 -234 880 236 175 173
-218 -233 879 248 186 189
-214 -232 877 254 192 197
-210 -232 876 255 197 201
-206 -231 874 252 196 199
-202 -231 873 248 185 189
-198 -230 872 223 173 175
-194 -230 871 213 163 166
-190 -230 870 190 144 146
-186 -229 869 190 146 147
-182 -229 867 196 150 152
-178 -228 864 210 161 164
-173 -227 861 221 172 175
-169 -226 860 227 177 180
-165 -226 858 226 175 179
-162 -225 857 223 172 176
-158 -225 856 229 179 183
-154 -225 856 225 175 179
-151 -225 855 224 174 178
-147 -224 855 229 179 183
-143 -224 855 228 178 181
-140 -224 855 225 175 178
-136 -224 855 226 175 178
-133 -224 855 226 174 179
-129 -224 855 231 178 183
-126 -224 856 232 179 184
-122 -224 856 236 184 189
-119 -224 858 230 176 182
-116 -225 859 225 170 175
-112 -225 860 219 162 168
-109 -225 862 212 153 159
-106 -226 864 199 141 147
-102 -226 865 176 114 124
-99 -227 868 185 124 133
-96 -227 871 203 144 153
-92 -228 873 198 141 147
-89 -228 876 193 132 140
-86 -229 877 190 130 140
-82 -229 880 187 121 133
-79 -230 881 203 125 144
-75 -230 882 255 175 195
-72 -230 883 251 173 195
-68 -230 884 197 132 149
-65 -230 884 140 91 102
-61 -230 885 116 88 90
-57 -230 884 115 93 95
-54 -229 881 111 94 94
-50 -227 874 114 94 97
-101 -541 2081 221 218 227
-92 -538 2068 219 216 225
-84 -536 2060 220 217 226
-75 -535 2057 219 216 225
-67 -534 2054 219 218 224
-58 -533 2052 219 218 226
-50 -533 2052 219 218 226
-42 -533 2051 219 218 227
-33 -533 2051 220 218 229
-25 -533 2049 221 218 227
-17 -532 2048 219 217 228
-8 -532 2046 220 218 229
0 -532 2046 220 218 229
8 -532 2047 224 222 235
146 -722 2777 168 161 166
158 -723 2779 173 167 171
169 -724 2781 176 170 174
180 -724 2780 177 171 175
192 -723 2779 177 171 175
203 -723 2778 177 170 177
214 -723 2777 178 173 179
225 -723 2777 178 173 178
237 -723 2774 178 174 178
248 -723 2774 180 175 179
259 -722 2771 181 176 180
270 -722 2768 183 178 182
281 -721 2763 183 179 181
292 -721 2762 184 180 181
303 -720 2758 185 180 184
314 -719 2753 187 182 186
325 -718 2751 187 182 186
336 -718 2749 187 182 186
347 -718 2747 186 181 185
358 -718 2746 188 183 189
369 -718 2745 185 183 188
380 -717 2743 186 184 189
391 -717 2740 187 185 190
402 -717 2739 187 186 191
413 -717 2737 186 185 190
424 -717 2735 185 184 189
435 -716 2732 185 184 189
446 -716 2730 187 185 190
457 -715 2727 188 186 191
468 -715 2724 187 185 190
479 -714 2720 188 186 191
490 -714 2718 188 186 191
501 -714 2717 187 186 191
512 -713 2713 187 186 192
523 -713 2711 188 187 193
533 -713 2707 187 186 192
544 -713 2706 187 186 192
555 -712 2703 188 187 193
566 -712 2699 187 186 192
577 -712 2698 186 185 191
587 -711 2692 188 187 192
599 -711 2692 186 185 191
610 -711 2690 187 186 192
622 -712 2692 187 187 193
632 -712 2689 187 187 191
643 -711 2686 185 185 189
655 -712 2687 187 186 192
665 -711 2681 186 185 191
677 -711 2681 186 185 191
687 -711 2677 185 184 190
700 -712 2680 185 184 190
710 -712 2677 184 183 189
721 -711 2673 183 182 188
731 -711 2669 181 180 186
742 -711 2666 181 178 185
754 -711 2665 179 177 182
765 -711 2664 179 177 182
776 -711 2662 176 174 179
788 -712 2661 174 172 175
798 -711 2657 173 171 174
809 -711 2655 170 169 174
820 -711 2652 169 168 173
831 -711 2650 168 166 169
842 -711 2647 164 162 165
854 -711 2645 161 159 160
865 -711 2644 163 161 162
875 -710 2638 161 161 161
886 -711 2636 158 158 158
895 -709 2628 158 157 156
901 -705 2610 156 157 157
904 -699 2584 152 157 156
660 -498 1838 208 214 214
666 -496 1831 204 211 213
672 -496 1826 204 211 215
680 -496 1825 209 215 218
691 -498 1831 116 136 150
1142 -718 2601 21 24 33
1153 -718 2596 18 23 29
1160 -716 2585 73 89 89
1167 -713 2572 97 115 117
1171 -708 2552 98 119 139
790 -381 1316 54 68 81
796 -381 1315 68 81 91
803 -381 1313 71 84 92
503 -227 772 18 26 35
498 -223 758 18 28 34
762 -332 1118 24 31 38
763 -331 1110 43 52 61
-2158 -717 2194 97 89 76
-2152 -719 2207 101 95 80
-2150 -722 2224 101 96 77
-2145 -724 2237 104 100 81
-2142 -727 2253 106 98 85
-2139 -730 2269 110 104 88
-2139 -734 2288 112 109 90
-2131 -735 2299 118 115 96
-2130 -739 2317 122 117 99
-2126 -741 2333 131 128 111
-2120 -743 2346 135 134 116
-2111 -744 2356 136 133 116
-2110 -748 2375 135 132 115
-2105 -751 2389 137 136 118
-2100 -753 2404 138 135 119
-2096 -756 2419 138 135 120
-2094 -759 2437 137 135 120
-2087 -761 2450 136 134 119
-2082 -764 2465 137 135 120
-2076 -766 2479 136 134 119
-2073 -770 2496 133 129 113
-2068 -772 2511 112 93 63
-2057 -773 2520 122 79 44
-2048 -774 2530 121 77 40
-2040 -776 2542 121 77 38
-2023 -774 2542 123 78 38
-2006 -772 2542 124 77 37
-1990 -771 2544 124 76 36
-1972 -768 2542 128 80 40
-1135 -651 2372 158 105 93
-237 -230 879 156 93 84
-234 -231 883 189 125 120
-230 -231 882 227 162 156
-226 -230 882 235 171 169
-222 -230 881 240 178 179
-218 -230 880 247 185 189
-214 -229 877 255 194 199
-210 -228 876 255 195 200
-205 -228 874 253 193 198
-201 -227 873 242 181 186
-198 -227 872 224 174 174
-194 -227 872 213 163 164
-190 -226 871 194 148 150
-186 -226 870 190 144 147
-182 -225 868 194 148 150
-178 -224 865 204 158 160
-173 -223 862 219 173 175
-170 -223 861 211 165 167
-166 -222 859 217 171 174
-162 -222 858 224 176 179
-158 -222 857 222 173 176
-154 -221 857 217 169 172
-151 -221 856 224 175 179
-147 -221 856 225 179 182
-143 -221 855 218 172 174
-140 -221 855 222 172 176
-136 -221 856 219 169 172
-133 -221 856 223 174 178
-129 -221 856 217 168 172
-126 -221 857 229 179 183
-122 -221 857 225 175 180
-119 -221 859 222 171 176
-116 -221 860 211 158 164
-112 -221 861 210 155 161
-109 -222 862 202 147 153
-106 -222 864 170 115 121
-102 -222 866 172 123 129
-99 -223 868 195 143 150
-96 -223 870 203 148 155
-92 -224 873 204 148 155
-89 -224 875 207 148 156
-85 -225 876 204 142 151
-82 -225 879 202 129 144
-79 -226 881 193 104 124
-75 -226 883 239 148 169
-72 -226 883 241 154 173
-68 -226 883 231 145 164
-64 -226 883 219 147 159
-61 -226 883 206 139 151
-57 -226 881 141 104 111
-53 -224 877 115 95 96
-49 -223 870 113 96 96
-101 -531 2077 221 218 227
-92 -529 2067 221 218 227
-83 -526 2057 219 216 225
-75 -525 2054 220 217 226
-67 -525 2053 219 216 224
-58 -525 2052 219 216 225
-50 -524 2051 218 217 225
-42 -525 2052 219 217 227
-33 -525 2052 219 218 228
-25 -524 2049 220 217 227
-17 -524 2048 220 217 227
-8 -523 2046 219 217 228
0 -523 2045 220 217 228
8 -524 2048 223 222 231
146 -710 2775 169 162 167
158 -711 2778 175 169 175
169 -712 2780 174 168 175
180 -712 2781 176 170 176
192 -712 2780 176 170 177
203 -712 2781 178 171 178
214 -712 2778 178 171 178
225 -712 2778 177 172 178
236 -711 2775 179 174 180
248 -711 2773 181 176 180
259 -710 2770 182 177 181
270 -710 2767 182 177 180
281 -709 2762 183 178 182
292 -709 2761 183 178 182
303 -708 2757 182 180 181
313 -707 2753 186 182 183
324 -707 2751 184 181 185
335 -706 2747 186 183 186
346 -706 2746 188 182 186
358 -706 2745 188 183 187
369 -706 2745 189 184 189
380 -706 2743 186 184 189
391 -705 2740 187 184 190
402 -705 2737 187 185 190
413 -705 2737 187 185 190
424 -704 2733 187 185 190
435 -704 2731 186 184 189
446 -703 2727 188 186 191
456 -703 2724 188 186 191
467 -702 2720 188 186 191
478 -702 2718 188 186 191
489 -702 2716 189 187 188
500 -702 2715 188 188 190
511 -702 2712 188 188 190
522 -701 2709 187 186 191
532 -700 2705 188 187 192
544 -701 2704 188 187 192
554 -700 2701 188 187 192
565 -700 2697 187 186 191
576 -700 2697 187 186 191
587 -699 2692 188 187 193
598 -699 2690 187 186 191
608 -698 2686 186 185 190
620 -700 2689 187 186 191
631 -699 2686 186 185 190
643 -699 2685 185 184 190
654 -699 2683 187 186 192
664 -699 2680 187 186 192
675 -698 2675 186 185 190
686 -699 2675 185 184 190
698 -700 2677 184 183 189
709 -700 2675 183 182 187
720 -699 2671 184 183 189
731 -699 2668 182 181 187
742 -699 2666 181 179 184
753 -699 2663 180 178 183
764 -699 2662 178 177 183
775 -699 2661 177 174 181
786 -699 2658 175 173 179
797 -699 2655 174 172 177
808 -699 2653 172 170 175
819 -699 2649 169 167 172
830 -699 2648 168 166 169
841 -699 2645 164 162 165
853 -699 2644 162 160 163
864 -699 2643 162 160 163
874 -699 2638 160 159 160
885 -699 2635 159 158 159
895 -698 2629 158 157 155
902 -694 2613 156 157 156
904 -688 2586 151 155 155
657 -494 1856 148 151 150
660 -490 1840 210 216 216
665 -488 1831 203 211 214
672 -488 1827 206 211 216
680 -488 1825 209 214 218
690 -490 1830 122 137 150
1143 -707 2604 20 23 32
1153 -707 2599 18 23 29
1161 -705 2588 73 87 89
1168 -702 2575 96 115 116
1172 -698 2556 99 120 139
790 -381 1343 54 70 85
794 -380 1336 52 65 82
796 -378 1327 53 69 85
798 -376 1319 75 86 96
801 -375 1312 43 51 54
804 -373 1304 17 24 32
503 -223 772 13 20 28
500 -221 762 15 24 31
-2154 -704 2193 97 90 74
-2149 -706 2206 100 94 78
-2145 -709 2221 100 95 76
-2141 -711 2235 102 96 80
-2138 -714 2251 108 100 87
-2135 -717 2267 107 104 88
-2135 -721 2286 115 109 93
-2128 -722 2298 120 113 97
-2127 -726 2316 124 118 102
-2123 -729 2332 133 130 113
-2117 -731 2345 133 132 114
-2107 -731 2354 135 132 115
-2107 -735 2373 137 134 118
-2102 -738 2388 136 135 117
-2097 -740 2402 138 135 120
-2093 -743 2418 139 136 121
-2091 -746 2436 138 136 121
-2084 -748 2449 136 134 119
-2081 -752 2466 137 135 120
-2076 -754 2481 137 134 119
-2066 -759 2511 111 92 62
-2056 -760 2521 119 80 41
-2043 -760 2526 120 78 39
-2034 -761 2537 121 77 38
-2014 -758 2533 124 79 38
-1999 -757 2535 124 77 35
-1965 -753 2535 130 82 41
-1144 -640 2368 154 118 125
-1134 -641 2373 168 112 96
-238 -228 884 179 111 98
-235 -228 886 216 149 138
-230 -227 884 230 165 159
-227 -227 884 240 176 174
-222 -226 882 244 182 185
-218 -226 881 246 186 189
-214 -225 878 254 195 197
-210 -225 877 255 197 199
-205 -224 874 250 190 192
-201 -223 873 243 183 185
-198 -223 873 226 177 174
-194 -223 873 205 158 155
-190 -223 872 187 141 141
-186 -222 871 194 150 149
-182 -222 869 185 139 139
-178 -221 868 177 131 133
-174 -220 865 191 146 146
-170 -220 863 206 160 162
-166 -219 862 205 161 162
-162 -219 861 210 164 167
-158 -218 859 217 171 174
-155 -218 859 213 168 171
-151 -218 858 226 181 184
-147 -218 858 215 171 174
-144 -218 857 212 167 171
-140 -217 857 207 162 166
-136 -217 857 219 172 177
-133 -217 857 220 173 179
-129 -217 858 223 174 178
-126 -217 858 219 170 174
-123 -217 859 226 175 180
-119 -218 861 210 157 162
-116 -218 861 206 150 156
-112 -218 862 204 150 157
-109 -218 863 185 133 138
-106 -219 865 159 110 116
-102 -219 867 180 135 143
-99 -219 869 198 150 157
-96 -220 872 211 152 161
-92 -221 875 222 153 166
-89 -221 877 222 144 160
-86 -222 879 215 126 144
-82 -222 882 201 109 127
-79 -223 884 174 72 93
-75 -223 885 206 101 124
-72 -223 884 215 117 138
-68 -223 884 215 125 143
-64 -222 883 219 127 148
-61 -222 883 217 137 154
-57 -222 881 210 146 156
-54 -222 880 138 99 103
-50 -220 874 118 98 100
-102 -528 2097 220 217 228
-92 -520 2066 219 216 227
-83 -519 2061 219 217 228
-75 -517 2057 218 216 227
-67 -517 2055 219 216 227
-58 -517 2055 219 216 227
-50 -516 2053 218 216 227
-42 -516 2052 220 218 229
-33 -516 2051 220 218 229
-25 -515 2049 221 218 227
-17 -515 2048 220 218 229
-8 -515 2047 220 218 231
0 -514 2046 220 218 231
8 -515 2050 221 221 233
146 -698 2775 171 162 169
158 -700 2780 177 167 175
169 -700 2782 177 167 175
180 -700 2781 178 168 176
191 -700 2780 179 169 177
203 -700 2780 177 172 176
214 -700 2778 177 172 176
225 -700 2777 179 173 177
236 -699 2774 180 174 178
247 -699 2771 182 176 180
258 -698 2768 182 177 181
269 -697 2764 182 177 181
280 -697 2761 181 179 182
291 -696 2758 183 181 184
302 -696 2756 186 181 185
313 -695 2751 186 181 185
324 -695 2751 186 181 185
335 -694 2747 187 182 187
346 -695 2748 188 183 188
357 -694 2745 186 184 189
369 -694 2744 185 183 188
380 -694 2742 185 182 189
391 -694 2741 186 184 189
402 -693 2738 186 184 189
413 -693 2736 187 185 190
424 -693 2735 187 185 190
435 -692 2731 188 186 191
445 -692 2728 188 186 191
456 -691 2722 188 186 191
467 -691 2720 187 185 191
478 -690 2718 187 185 190
489 -690 2715 188 186 189
500 -690 2714 189 187 192
511 -690 2712 187 186 191
522 -690 2710 187 186 191
533 -690 2708 187 187 190
543 -689 2703 188 188 189
554 -689 2702 188 187 192
565 -689 2699 188 188 191
576 -688 2697 187 186 191
587 -688 2693 188 187 193
598 -688 2691 187 186 191
609 -688 2689 187 186 192
620 -688 2688 187 186 192
631 -688 2687 185 186 191
642 -688 2684 185 186 191
653 -688 2683 185 186 191
663 -687 2678 186 186 191
675 -688 2678 186 185 191
686 -688 2676 185 184 190
697 -688 2675 185 184 189
708 -687 2670 183 182 188
719 -687 2670 183 184 188
730 -687 2668 181 181 186
742 -688 2667 181 180 185
753 -688 2666 179 178 183
765 -689 2666 179 178 183
775 -688 2662 175 175 178
786 -688 2659 174 174 177
796 -687 2655 173 172 174
807 -687 2652 172 170 173
818 -687 2649 169 167 170
830 -687 2648 168 166 169
841 -687 2646 164 162 164
852 -688 2645 162 162 164
863 -688 2643 162 162 164
873 -687 2637 159 159 159
885 -687 2636 158 158 158
894 -686 2629 160 160 160
902 -683 2615 155 157 157
906 -678 2594 154 156 158
656 -485 1854 152 153 155
660 -483 1842 209 213 216
666 -481 1834 206 210 213
672 -480 1829 208 212 215
680 -480 1828 208 213 217
690 -482 1832 128 143 155
707 -488 1853 108 134 162
1140 -694 2600 21 24 31
1152 -695 2598 20 23 32
1159 -693 2586 75 87 91
1167 -691 2576 98 116 118
1171 -686 2556 95 118 136
2138 -1208 4475 92 116 142
796 -381 1367 50 66 82
796 -378 1354 53 68 83
796 -375 1342 53 66 82
796 -372 1329 53 67 78
797 -370 1318 63 73 85
798 -367 1307 30 37 42
798 -364 1295 20 27 33
797 -362 1283 20 27 37
494 -216 760 13 20 30
502 -218 765 12 20 30
-2164 -692 2186 98 91 73
-2156 -694 2197 97 90 74
-2151 -695 2210 98 91 75
-2147 -698 2225 101 94 78
-2142 -700 2239 103 97 81
-2139 -703 2255 108 101 83
-2137 -706 2271 108 105 90
-2135 -709 2289 113 110 93
-2129 -711 2301 118 112 96
-2127 -714 2319 123 117 102
-2123 -717 2334 132 129 114
-2118 -719 2348 136 134 119
-2110 -720 2359 134 131 116
-2107 -724 2376 135 132 117
-2102 -726 2390 137 134 117
-2096 -728 2404 137 134 117
-2092 -731 2419 138 134 117
-2089 -734 2436 137 136 118
-2085 -736 2452 136 133 118
-2081 -739 2468 137 136 118
-2076 -742 2483 133 133 116
-2071 -745 2499 130 127 112
-2063 -746 2510 110 88 60
-2053 -747 2519 121 78 43
-2038 -746 2522 120 76 37
-2029 -747 2532 120 76 41
-2007 -743 2526 124 78 41
-1994 -743 2531 127 79 41
-1977 -741 2531 125 77 39
-1962 -740 2534 129 80 41
-1941 -737 2528 128 80 40
-1925 -735 2529 130 81 41
-242 -224 883 207 138 123
-239 -224 886 209 141 128
-235 -225 888 227 160 147
-231 -224 885 239 174 172
-226 -223 884 241 177 178
-222 -223 882 246 184 187
-218 -222 880 252 190 190
-214 -221 878 254 194 196
-209 -221 876 251 191 193
-205 -220 874 253 193 195
-201 -220 873 248 188 190
-197 -220 873 228 180 179
-194 -219 872 219 171 171
-190 -219 871 197 149 149
-186 -219 871 188 139 143
-182 -218 869 188 139 142
-178 -218 869 191 145 147
-174 -217 866 185 136 140
-170 -217 866 203 157 159
-166 -216 864 200 154 157
-162 -216 863 204 158 160
-159 -216 862 211 166 170
-155 -215 861 212 167 172
-151 -215 860 215 170 175
-147 -214 859 217 174 178
-144 -214 858 220 175 180
-140 -214 858 225 179 183
-136 -214 858 223 175 179
-133 -214 858 218 171 177
-130 -214 859 211 164 170
-126 -214 860 207 158 162
-123 -214 860 211 162 167
-119 -214 862 218 169 173
-116 -215 863 202 151 156
-112 -215 864 191 140 145
-109 -215 866 158 106 111
-106 -216 868 171 118 123
-103 -216 870 180 120 130
-99 -217 872 185 122 133
-96 -217 875 187 125 134
-93 -218 878 186 103 118
-89 -219 881 175 81 101
-86 -219 882 171 63 87
-82 -219 884 171 67 89
-79 -220 886 165 54 78
-75 -220 886 163 46 69
-72 -220 886 199 93 113
-68 -219 886 202 102 121
-65 -219 885 210 117 135
-61 -219 885 203 121 135
-57 -219 884 203 127 140
-54 -219 884 186 124 133
-50 -219 883 131 100 102
-46 -216 873 117 101 102
-92 -513 2072 220 216 230
-83 -510 2060 219 215 229
-75 -509 2057 218 214 228
-67 -508 2055 219 216 227
-58 -508 2053 218 216 229
-50 -508 2053 218 216 229
-42 -507 2051 219 217 230
-33 -507 2049 219 217 230
-25 -506 2048 219 217 230
-17 -506 2047 218 216 229
-8 -506 2046 220 218 231
0 -506 2045 219 217 230
8 -507 2049 219 219 231
146 -686 2774 169 162 167
157 -688 2778 175 168 175
169 -688 2779 174 167 174
180 -688 2779 176 169 176
191 -688 2778 177 170 177
203 -688 2778 178 172 176
214 -688 2776 179 173 178
225 -688 2775 180 175 179
236 -687 2771 180 175 180
247 -687 2770 180 175 180
258 -686 2766 181 175 181
269 -685 2763 182 177 181
280 -685 2761 183 178 182
291 -684 2758 184 179 183
302 -684 2756 185 180 184
313 -684 2753 186 181 186
324 -684 2752 187 182 186
335 -683 2747 188 183 189
346 -682 2746 188 183 189
357 -682 2743 186 184 189
368 -682 2743 186 184 189
379 -682 2740 187 185 190
390 -682 2739 186 184 190
401 -681 2736 187 185 190
412 -681 2735 188 186 191
423 -681 2733 187 185 190
434 -680 2729 187 185 190
445 -680 2726 189 187 192
456 -679 2723 188 186 191
466 -679 2719 187 185 190
477 -679 2717 188 186 191
488 -679 2716 188 188 190
499 -678 2712 188 187 192
510 -678 2711 189 188 192
521 -678 2708 188 187 192
532 -677 2705 187 187 189
543 -677 2703 188 187 191
553 -677 2699 188 187 192
564 -677 2698 188 187 192
575 -676 2694 188 187 193
586 -676 2691 187 186 192
596 -675 2687 187 186 191
607 -675 2686 186 185 191
619 -676 2685 187 186 191
630 -676 2684 187 186 192
641 -676 2682 185 184 190
652 -676 2680 186 185 190
663 -676 2678 186 185 190
674 -676 2678 185 184 189
685 -675 2674 185 184 189
696 -676 2673 185 184 189
707 -675 2670 184 184 187
718 -675 2668 183 184 186
729 -675 2665 181 182 184
740 -676 2665 181 181 183
752 -676 2664 179 179 181
763 -676 2663 179 177 180
774 -676 2660 177 175 178
784 -676 2656 176 174 177
795 -675 2652 173 171 176
806 -675 2651 170 170 170
817 -675 2648 170 168 169
828 -675 2645 166 165 167
840 -676 2645 165 163 165
851 -676 2644 165 163 166
863 -676 2642 160 158 159
873 -676 2639 160 160 160
884 -676 2636 159 159 159
894 -675 2629 157 157 155
901 -671 2614 158 160 157
903 -665 2588 151 153 153
660 -475 1842 207 211 212
665 -473 1833 205 210 213
671 -472 1827 207 211 214
679 -472 1825 207 214 217
689 -473 1830 131 145 156
703 -478 1845 104 133 161
1139 -683 2600 21 25 34
1151 -683 2598 17 24 33
1160 -682 2589 77 88 94
1167 -679 2577 99 114 121
1170 -675 2557 97 120 138
2136 -1187 4474 90 116 141
801 -380 1390 45 61 76
800 -376 1374 48 64 79
798 -372 1358 52 68 81
799 -370 1347 48 64 77
797 -366 1332 56 68 82
796 -363 1318 71 78 84
795 -360 1304 87 92 95
794 -357 1291 101 113 113
794 -354 1278 121 131 133
792 -351 1263 141 149 152
1860 -711 2444 58 67 66
1870 -710 2437 58 67 66
-2165 -681 2190 98 91 75
-2158 -683 2201 96 89 73
-2151 -684 2213 99 92 76
-2146 -686 2226 101 94 78
-2141 -688 2240 104 97 82
-2139 -691 2257 108 101 85
-2135 -694 2272 110 104 88
-2134 -697 2290 116 110 94
-2128 -699 2303 118 112 98
-2128 -703 2322 122 118 104
-2124 -705 2337 130 127 112
-2118 -708 2351 132 130 115
-2110 -709 2362 134 131 116
-2109 -712 2380 135 132 117
-2103 -714 2394 134 131 113
-2100 -717 2410 136 133 116
-2095 -720 2425 135 133 118
-2091 -722 2441 136 134 119
-2087 -725 2457 138 135 118
-2083 -728 2473 136 133 116
-2076 -730 2486 134 132 117
-2073 -733 2503 125 119 103
-2063 -734 2513 115 85 55
-2051 -734 2519 119 75 38
-2036 -733 2522 121 75 41
-2022 -732 2526 121 76 44
-1999 -728 2519 121 75 42
-1988 -729 2526 124 78 44
-1971 -727 2526 125 77 41
-1957 -726 2530 128 80 42
-1940 -724 2529 129 81 45
-245 -220 881 218 150 137
-242 -220 885 220 152 139
-239 -221 887 223 155 142
-235 -221 887 231 163 150
-230 -220 885 240 177 170
-226 -220 884 245 180 184
-222 -219 882 249 187 192
-218 -218 880 254 193 198
-213 -218 878 254 193 198
-209 -217 876 254 193 198
-205 -217 875 249 190 194
-201 -216 874 240 184 187
-198 -216 874 220 177 171
-194 -216 873 207 164 158
-190 -216 873 207 164 163
-186 -215 872 189 148 146
-182 -215 871 178 134 135
-178 -215 871 177 131 133
-174 -214 869 179 135 137
-171 -214 868 188 143 146
-167 -213 866 200 155 159
-163 -213 865 199 156 161
-159 -212 864 203 158 163
-155 -212 863 201 158 165
-151 -212 862 208 164 171
-148 -211 861 204 161 166
-144 -211 859 223 179 184
-140 -211 859 213 166 172
-137 -211 859 215 170 177
-133 -211 860 211 163 169
-130 -211 861 201 154 160
-126 -211 862 203 154 159
-123 -211 863 207 160 164
-119 -211 864 197 148 150
-116 -211 865 199 149 150
-113 -212 866 175 120 123
-109 -212 868 155 99 102
-106 -212 870 136 76 82
-103 -213 873 147 78 92
-100 -214 877 141 66 80
-96 -214 879 145 56 74
-93 -215 882 167 71 91
-90 -216 885 133 34 60
-86 -216 885 127 25 49
-83 -216 887 166 57 80
-79 -216 888 157 51 73
-76 -217 889 148 45 69
-72 -216 888 128 31 50
-68 -216 889 169 70 83
-65 -216 889 190 102 114
-61 -216 888 207 115 132
-57 -216 887 188 105 120
-54 -216 889 196 124 135
-50 -216 889 178 132 136
-47 -216 887 121 101 105
-42 -213 874 117 99 100
-84 -503 2070 220 216 230
-75 -501 2060 219 215 229
-67 -500 2058 219 216 227
-58 -499 2053 220 216 229
-50 -499 2052 218 216 229
-41 -499 2051 219 217 231
-33 -498 2049 220 218 232
-25 -497 2047 221 217 231
-17 -497 2046 221 217 231
-8 -497 2044 221 217 231
0 -496 2043 219 215 229
8 -497 2047 221 219 232
146 -675 2775 170 164 169
157 -676 2780 174 169 175
169 -676 2780 175 170 175
180 -676 2779 176 169 176
191 -676 2777 176 169 176
202 -676 2775 178 171 178
213 -675 2772 179 172 179
224 -675 2771 179 172 179
235 -675 2769 180 173 180
246 -674 2765 182 175 182
258 -674 2765 182 177 183
269 -674 2763 183 178 184
280 -673 2761 183 178 184
291 -673 2757 184 179 185
302 -672 2755 183 178 184
312 -671 2750 187 182 188
324 -671 2749 187 182 188
334 -670 2745 187 182 188
346 -670 2744 188 183 189
356 -670 2741 187 182 188
367 -670 2739 189 184 190
378 -669 2737 189 184 190
390 -669 2736 188 184 190
401 -669 2735 187 185 190
412 -669 2733 187 185 190
423 -669 2732 187 185 190
434 -669 2729 188 186 191
445 -669 2727 187 185 190
455 -668 2724 187 185 190
466 -667 2720 188 186 191
477 -667 2718 189 187 191
488 -667 2715 189 189 191
498 -666 2711 188 187 192
510 -667 2712 188 187 192
520 -666 2707 189 188 194
531 -666 2705 187 186 191
542 -666 2703 188 187 192
553 -666 2701 187 187 192
563 -664 2694 188 188 195
574 -664 2693 187 188 194
586 -665 2692 188 187 193
596 -664 2688 187 186 192
607 -664 2687 187 186 192
619 -665 2687 187 186 192
630 -665 2686 188 187 193
641 -664 2683 186 185 191
652 -664 2681 186 185 190
663 -664 2679 186 185 190
674 -664 2677 185 184 189
685 -664 2675 186 185 190
695 -664 2672 185 185 188
705 -663 2665 184 183 187
716 -663 2664 183 183 185
727 -662 2660 181 182 184
739 -664 2663 182 182 184
751 -664 2662 181 180 185
763 -665 2663 180 177 184
773 -664 2657 178 176 181
784 -664 2655 176 174 179
794 -663 2649 174 172 175
805 -663 2648 170 170 170
816 -663 2645 168 168 169
827 -663 2644 167 166 167
839 -664 2644 165 163 166
850 -664 2643 162 160 161
862 -665 2642 161 159 160
873 -664 2639 158 156 157
883 -664 2634 159 157 158
894 -663 2630 158 157 155
900 -660 2613 157 157 157
905 -656 2594 150 151 153
656 -470 1856 152 153 155
659 -466 1840 208 212 215
664 -464 1831 206 211 214
670 -463 1826 209 213 214
678 -463 1824 206 213 219
688 -465 1828 136 148 158
702 -469 1843 106 134 162
1149 -671 2596 20 23 30
1158 -669 2587 76 88 96
1164 -667 2573 99 112 118
1168 -663 2554 97 121 139
2133 -1166 4470 89 118 142
1162 -573 2157 104 132 150
1157 -566 2127 83 116 132
801 -374 1391 49 66 82
801 -370 1377 52 68 84
800 -367 1362 48 60 72
799 -364 1349 51 63 73
797 -360 1333 72 81 86
797 -358 1320 88 99 103
795 -354 1305 108 118 118
793 -350 1289 121 135 136
791 -347 1274 132 145 145
788 -344 1259 143 153 157
789 -341 1249 120 121 126
478 -201 730 53 53 60
1853 -697 2438 57 69 67
1863 -696 2430 58 69 67
1879 -697 2429 53 65 61
1894 -699 2428 53 66 61
-2166 -670 2193 96 87 70
-2157 -671 2202 100 91 74
-2151 -673 2215 100 91 74
-2147 -675 2229 104 97 81
-2142 -677 2243 105 97 83
-2141 -680 2261 108 99 86
-2139 -683 2278 113 104 91
-2136 -686 2294 116 109 94
-2130 -688 2307 120 112 99
-2127 -691 2323 124 119 104
-2122 -693 2337 132 129 114
-2118 -696 2353 133 130 115
-2110 -697 2364 134 131 114
-2108 -700 2382 133 130 113
-2105 -703 2398 133 130 113
-2100 -705 2413 136 133 118
-2094 -707 2426 135 133 118
-2092 -711 2444 140 134 120
-2086 -713 2458 139 133 117
-2080 -715 2472 139 133 117
-2075 -717 2487 137 131 115
-2073 -721 2505 116 113 98
-2060 -721 2511 118 80 49
-2051 -722 2521 118 75 41
-2037 -721 2526 120 75 42
-2023 -721 2530 119 74 41
-2001 -717 2524 120 74 38
-1991 -718 2532 124 78 42
-1974 -716 2532 125 79 45
-1959 -715 2534 125 77 41
-1943 -713 2535 127 79 43
-306 -183 723 172 112 87
-299 -183 724 175 111 85
-250 -214 874 205 140 133
-248 -215 879 221 160 144
-245 -216 883 227 159 151
-242 -217 886 229 160 155
-239 -217 888 236 169 163
-235 -217 888 240 172 169
-231 -216 886 242 178 176
-226 -216 884 246 184 188
-222 -215 881 250 189 192
-217 -214 878 254 195 196
-213 -213 876 255 196 202
-209 -213 875 255 194 199
-205 -213 874 248 190 194
-201 -212 874 235 182 185
-197 -212 874 234 185 183
-194 -212 873 215 171 169
-190 -212 873 190 150 148
-186 -211 872 190 146 147
-182 -211 872 179 133 136
-179 -211 872 178 134 135
