ply
format ascii 1.0
element vertex 2326
property float x
property float y
property float z
property uchar red
property uchar green
property uchar blue
end_header
277 46 268 112 94 82
277 45 265 118 108 97
277 45 263 121 113 102
278 45 262 116 107 97
278 45 260 106 100 88
280 45 259 96 85 72
282 45 259 91 79 64
283 45 258 86 70 55
284 45 256 84 67 47
284 45 254 85 67 47
-206 95 686 82 91 142
-201 95 681 58 86 136
-197 94 677 57 83 140
-194 94 675 49 75 130
-190 93 672 45 71 123
-186 93 670 38 64 113
-183 92 667 32 57 105
-179 92 665 38 60 107
-176 92 663 33 52 94
-173 91 661 24 39 80
-169 91 660 23 32 63
-167 91 660 19 25 55
-164 91 660 17 24 53
-161 91 660 20 25 54
-158 91 660 21 29 59
-155 91 660 18 24 53
-153 91 661 16 23 51
-150 91 661 16 20 47
-147 91 661 13 18 37
-145 91 662 13 16 33
-142 91 663 11 14 29
-140 91 664 12 14 27
-137 91 665 11 15 26
-135 91 666 10 14 25
-132 91 667 10 12 27
-130 91 669 10 12 29
-127 92 670 9 12 29
-125 92 672 9 8 23
-122 92 674 4 8 21
-120 92 676 5 11 28
-117 92 677 35 47 82
-114 92 675 33 47 92
-110 91 669 33 46 91
-106 90 658 32 46 90
-101 88 645 31 45 90
-97 86 634 31 47 91
-93 85 625 30 44 90
-89 84 619 29 43 88
-86 84 615 29 43 87
-84 83 612 28 39 84
-81 83 609 27 42 85
-78 82 607 29 44 87
-75 82 605 34 48 92
-72 82 602 26 40 83
-70 81 600 34 47 90
-67 81 598 32 45 87
-64 81 596 30 42 84
-62 81 595 30 42 82
-59 80 594 23 35 73
-57 80 593 25 35 70
-54 80 592 25 35 70
-52 80 591 21 31 66
-50 80 590 22 32 67
-47 80 589 23 33 68
-45 80 589 23 33 68
-42 79 588 25 33 69
-40 79 587 20 29 60
-38 79 587 20 26 58
-35 79 586 17 26 57
-33 79 585 18 27 56
-30 79 585 20 27 56
-28 79 585 20 27 56
-26 79 584 18 25 54
-23 79 584 16 23 52
-21 79 583 16 22 54
-19 79 583 18 24 56
-16 79 582 22 27 59
-14 78 581 21 26 58
-12 78 580 20 25 57
-9 78 580 20 26 55
-7 78 579 23 28 58
-5 78 578 23 29 59
-2 78 577 22 27 57
0 78 577 20 25 55
2 78 576 20 25 55
5 78 575 17 22 52
7 78 575 16 21 51
9 77 574 16 21 50
11 77 574 16 21 50
14 77 573 16 21 50
16 77 573 17 22 51
18 77 573 18 23 52
21 77 572 16 21 50
23 77 572 16 20 49
25 77 571 18 22 52
27 77 570 20 25 55
30 77 570 21 26 56
32 77 569 19 24 54
34 77 568 19 24 54
36 77 567 18 25 54
38 77 567 18 25 54
41 77 566 18 25 54
43 76 565 20 27 55
45 76 565 18 26 55
47 76 564 18 27 56
50 76 563 15 24 53
52 76 563 17 26 55
54 76 563 17 26 55
56 76 563 18 28 55
58 76 562 20 29 57
61 76 561 19 28 57
63 76 560 20 29 59
65 76 559 20 29 59
67 76 558 19 28 58
69 76 558 19 28 59
71 76 557 19 26 58
74 76 557 21 27 59
76 75 556 21 30 63
78 75 555 20 29 62
80 75 554 20 31 63
82 75 553 23 33 66
84 75 552 24 33 66
86 75 550 24 33 66
88 75 549 24 34 69
90 75 548 22 32 67
92 75 547 22 31 65
95 75 547 22 32 67
97 74 546 23 32 65
99 74 545 22 32 67
101 74 544 24 33 66
103 74 542 23 33 68
105 74 541 24 34 67
107 74 539 24 33 66
109 74 538 23 32 64
111 73 537 24 30 62
113 73 536 19 26 55
115 73 536 18 24 52
117 73 535 19 24 49
119 73 535 17 22 41
121 73 534 16 21 41
124 73 534 14 19 37
126 73 534 14 20 37
128 74 535 13 17 36
131 74 535 10 15 35
133 74 535 13 16 35
135 74 535 11 17 35
137 74 535 14 18 34
140 74 535 12 18 35
142 74 535 12 17 36
144 74 536 13 19 38
146 74 535 15 20 39
149 74 535 13 20 38
151 74 535 14 21 40
153 74 534 15 22 42
155 74 534 17 23 45
157 74 533 17 24 44
160 74 533 16 22 44
162 74 532 15 23 46
164 74 532 15 23 46
166 74 532 16 23 42
169 74 533 14 21 40
171 74 533 15 22 40
174 74 533 14 20 38
177 75 535 13 19 35
180 75 536 16 19 34
182 75 537 16 19 34
185 76 539 16 19 34
188 76 540 14 18 31
191 76 542 14 17 30
194 76 543 14 16 28
197 77 544 14 16 28
200 77 546 15 17 28
204 77 549 14 17 26
207 78 552 15 18 27
211 78 555 15 17 26
215 79 559 16 16 26
219 80 562 17 17 27
223 80 566 14 17 26
227 81 569 16 16 26
231 82 574 19 18 29
236 82 579 18 18 29
241 83 585 19 19 31
247 84 591 19 21 34
252 85 598 23 22 36
259 87 606 23 23 37
265 88 615 23 22 36
271 89 622 21 22 35
277 90 628 18 20 32
282 91 632 18 18 28
285 91 633 12 12 20
288 91 633 10 11 15
291 91 633 10 10 12
293 91 631 12 12 14
296 91 629 12 12 14
297 91 626 11 11 13
299 90 623 11 11 14
301 90 621 12 12 16
303 90 618 12 13 17
304 90 615 12 13 17
306 89 613 11 13 18
308 89 610 13 14 19
310 89 608 14 15 20
312 89 606 12 15 20
314 88 603 14 17 23
316 88 601 16 16 24
318 88 600 14 17 25
320 88 598 15 15 25
323 88 597 14 17 26
325 88 595 16 16 26
327 88 594 17 17 27
330 88 593 17 17 29
333 88 592 16 16 28
335 88 591 17 17 29
338 88 590 17 17 29
340 88 589 16 16 30
343 88 588 18 17 31
345 88 587 17 16 30
348 88 586 18 19 33
351 88 585 17 19 34
354 88 585 19 21 36
357 88 585 20 20 35
362 89 587 19 21 33
367 89 590 33 31 47
373 90 594 83 57 48
379 91 599 96 58 47
386 92 604 95 62 51
392 93 608 103 65 56
251 54 342 31 30 27
252 54 340 138 128 123
252 53 338 149 120 117
252 53 335 148 124 127
252 53 332 149 123 129
252 52 329 139 115 120
251 52 325 131 108 114
251 51 322 135 114 120
250 51 318 140 120 124
248 50 313 144 124 126
243 49 304 153 127 130
239 48 296 157 116 120
234 47 288 152 98 104
234 46 285 138 76 78
234 46 283 131 63 63
235 46 282 116 54 54
235 46 280 105 57 57
236 46 278 123 93 92
235 45 275 143 112 109
234 45 272 144 110 108
235 45 270 139 106 101
235 44 268 132 100 93
236 44 267 121 91 81
237 44 266 113 83 73
238 44 265 100 76 64
240 44 265 92 71 61
241 44 264 88 68 57
243 45 264 88 68 55
245 45 264 91 71 60
277 49 281 93 68 37
278 49 280 119 115 77
279 49 279 82 64 41
279 48 276 96 73 52
278 48 273 96 78 58
277 47 270 101 83 68
277 47 267 110 94 81
276 47 264 116 106 96
276 46 262 120 112 101
277 46 261 117 109 98
277 46 259 108 100 87
279 46 258 96 86 74
280 46 257 85 76 64
282 46 257 83 69 56
283 46 255 79 69 54
283 46 253 80 68 54
-210 99 690 71 90 142
-204 97 681 56 79 129
-200 97 678 56 77 132
-196 96 674 50 75 129
-193 96 672 49 72 122
-189 95 669 41 64 114
-186 95 667 30 52 99
-182 95 664 31 53 100
-179 94 662 32 53 96
-175 94 661 33 51 91
-172 94 660 24 38 75
-169 94 659 21 29 58
-166 94 659 18 25 54
-164 93 659 17 22 52
-161 93 659 19 24 53
-158 93 660 21 27 57
-156 93 660 18 23 53
-153 93 660 15 21 47
-150 93 660 18 22 47
-147 93 660 14 17 34
-145 93 661 13 16 31
-142 93 662 11 14 29
-140 94 663 11 15 28
-137 94 665 10 14 24
-135 94 666 9 13 25
-132 94 667 8 12 24
-130 94 669 10 13 25
-127 94 670 8 11 26
-125 94 672 7 11 23
-122 95 674 5 8 23
-120 95 676 4 7 22
-118 95 679 30 38 61
-115 95 678 33 47 87
-111 95 674 34 47 93
-107 93 666 33 46 88
-102 92 653 31 45 89
-98 90 640 32 45 91
-94 88 630 30 43 88
-90 87 622 31 44 88
-87 86 616 30 43 87
-84 86 612 27 40 84
-81 85 609 29 42 86
-78 85 606 34 47 92
-75 84 603 32 45 90
-72 84 601 34 48 92
-70 84 599 35 49 93
-67 83 597 29 42 85
-64 83 595 28 40 81
-62 83 593 24 34 72
-59 83 593 21 29 65
-57 83 592 23 31 67
-54 82 591 22 30 66
-52 82 591 21 29 65
-50 82 590 21 30 63
-47 82 589 21 30 64
-45 82 588 22 31 64
-42 82 588 22 29 63
-40 82 587 21 27 59
-37 82 586 17 23 55
-35 82 586 19 24 56
-33 81 585 20 25 57
-30 81 585 21 26 58
-28 81 584 20 25 57
-26 81 584 17 22 54
-23 81 584 15 20 50
-21 81 583 16 21 51
-19 81 583 19 24 54
-16 81 581 21 26 56
-14 81 581 22 27 59
-12 81 580 20 25 57
-9 80 579 20 25 57
-7 80 578 23 28 60
-5 80 578 22 29 59
-2 80 577 21 27 59
0 80 577 17 24 53
2 80 576 19 26 54
5 80 575 15 22 49
7 80 575 18 23 52
9 80 574 16 21 50
11 80 574 16 21 49
14 80 573 16 21 49
16 80 572 16 22 48
18 80 572 14 21 47
21 80 572 16 22 49
23 79 571 15 21 49
25 79 571 16 22 50
27 79 570 18 24 51
30 79 569 18 24 51
32 79 568 18 23 52
34 79 567 19 24 53
36 79 566 20 25 55
38 79 565 19 25 55
41 79 565 20 27 56
43 79 564 20 27 56
45 78 563 21 28 57
47 78 563 20 28 56
49 78 562 18 28 56
52 78 562 21 30 59
54 78 561 21 30 59
56 78 561 21 28 57
58 78 561 23 30 59
61 78 560 25 32 61
63 78 559 23 30 62
65 78 558 21 30 59
67 78 557 20 29 60
69 78 556 19 28 59
71 78 556 20 29 60
73 78 555 21 30 61
76 77 554 21 29 62
78 77 553 22 31 64
80 77 552 22 31 64
82 77 551 23 32 65
84 77 550 24 33 66
86 77 548 26 35 68
88 77 548 24 32 68
90 77 546 24 32 68
92 76 545 24 32 68
94 76 544 26 34 69
96 76 544 24 32 68
99 76 543 26 34 69
101 76 542 26 35 69
102 76 540 23 36 66
104 76 539 24 35 65
107 76 538 22 32 63
109 76 537 20 29 61
111 76 536 20 26 53
113 75 535 19 23 49
115 75 535 17 22 44
117 75 534 17 22 43
119 75 534 14 21 39
121 75 534 13 19 35
124 76 534 12 17 36
126 76 534 15 17 37
128 76 534 11 16 33
130 76 534 12 16 32
133 76 534 15 17 34
135 76 534 15 18 35
137 76 534 15 19 35
139 76 534 14 20 36
142 76 535 16 21 40
144 76 535 16 21 40
147 76 535 18 23 42
149 76 534 17 22 42
151 76 534 16 21 41
153 76 534 17 22 44
155 76 533 16 22 44
157 76 533 17 22 42
160 76 532 16 22 44
162 76 532 16 22 44
164 76 531 16 22 43
166 76 531 16 23 42
169 76 532 16 22 41
171 76 532 14 19 38
174 77 532 13 19 36
177 77 534 15 18 35
179 77 535 14 20 36
182 77 537 15 21 36
185 78 538 15 19 32
188 78 540 14 17 31
191 78 542 14 17 30
194 79 543 13 15 28
197 79 544 12 16 28
200 79 547 15 17 30
204 80 550 15 18 27
208 80 553 18 18 30
212 81 557 18 18 30
216 82 561 17 17 27
220 82 565 17 17 27
224 83 568 15 17 29
228 84 572 16 17 29
233 84 577 17 17 29
237 85 581 18 18 28
242 86 586 19 19 31
247 87 591 19 19 32
252 88 598 21 20 34
258 89 605 23 22 36
265 90 613 23 22 36
270 92 620 21 21 34
276 93 626 19 21 33
281 93 630 21 21 33
285 94 633 18 18 28
289 94 634 12 13 18
292 94 634 11 10 16
295 94 633 12 11 16
297 94 631 12 11 17
298 94 628 11 10 16
300 93 625 11 10 16
302 93 622 13 12 17
303 93 619 12 11 17
305 92 616 12 13 18
306 92 613 12 12 19
309 92 611 13 14 19
310 92 608 13 13 21
312 91 606 12 14 21
314 91 603 13 16 23
316 91 601 15 15 25
318 91 600 16 16 26
320 91 598 16 16 26
322 91 596 14 16 26
325 91 595 15 15 25
327 91 594 16 16 27
330 91 593 15 15 27
333 91 592 16 16 28
335 90 590 17 17 29
337 90 589 18 18 30
340 90 588 17 17 29
342 90 587 17 16 30
345 90 586 18 17 31
348 91 586 16 18 31
351 91 586 15 18 32
355 91 586 16 20 33
359 91 587 19 22 38
363 92 589 43 28 30
369 92 593 86 56 46
375 93 597 91 59 47
381 94 601 96 60 45
387 95 605 102 61 43
392 96 608 106 65 47
396 96 609 107 65 49
250 55 343 21 17 16
251 55 341 87 79 76
251 55 339 152 132 131
251 55 336 142 113 115
251 54 333 140 108 111
251 54 330 145 118 121
251 54 327 141 116 120
250 53 324 136 109 114
250 53 320 134 111 117
248 52 315 142 121 127
243 51 307 147 123 130
238 49 298 151 124 130
233 48 289 153 117 124
231 47 284 143 91 100
230 47 281 128 67 72
232 47 280 123 54 55
233 47 279 110 47 45
234 47 278 92 41 40
234 47 276 127 96 92
233 46 273 140 111 107
233 46 270 144 111 106
234 46 269 139 102 96
234 46 267 131 98 91
235 46 266 119 90 82
236 45 265 111 82 74
237 45 264 98 74 63
239 46 264 88 68 57
241 46 264 87 67 56
243 46 264 84 64 53
245 46 264 86 66 55
250 47 267 88 70 58
277 50 281 85 66 36
278 50 280 123 117 85
279 50 278 67 45 31
278 49 275 90 74 58
277 49 272 94 73 56
276 49 269 98 78 66
276 48 266 108 93 80
275 48 263 116 106 96
275 48 261 121 115 103
275 48 259 117 109 98
277 47 258 107 99 87
278 47 257 98 90 77
279 47 256 85 77 64
281 48 256 78 67 53
282 47 254 75 66 49
282 47 252 75 69 53
-1176 360 2327 70 68 69
-1153 359 2328 72 72 76
-214 102 693 95 84 136
-208 101 683 61 84 141
-203 100 677 55 79 135
-199 99 674 49 76 126
-195 99 671 46 72 121
-192 98 668 42 65 114
-188 98 666 36 59 105
-185 97 664 34 57 101
-181 97 662 32 53 97
-178 97 660 27 48 89
-175 96 659 30 48 87
-172 96 658 22 38 73
-169 96 658 21 31 61
-166 96 658 19 26 54
-163 96 658 16 23 51
-161 96 658 18 24 48
-158 96 658 19 26 54
-155 96 659 15 21 47
-153 96 659 16 22 48
-150 96 659 16 21 43
-147 96 660 13 18 36
-145 96 660 13 17 30
-142 96 661 12 15 27
-140 96 663 11 13 25
-137 96 664 10 13 23
-135 97 666 9 13 22
-132 97 667 9 12 22
-130 97 668 10 12 26
-127 97 670 8 10 22
-125 97 672 7 9 21
-122 97 674 5 7 19
-120 98 677 5 8 23
-118 98 680 2 8 20
-115 98 680 35 46 71
-112 98 679 31 40 83
-108 97 673 29 42 84
-104 96 664 29 42 84
-100 94 652 30 43 87
-95 92 639 30 43 86
-91 91 629 31 44 88
-87 89 621 29 42 86
-84 89 615 30 43 86
-81 88 610 32 44 89
-78 87 607 34 46 91
-75 87 603 32 45 89
-72 86 601 31 44 88
-70 86 598 27 40 84
-67 86 596 24 38 75
-64 85 594 20 32 67
-62 85 592 18 29 61
-59 85 592 16 25 54
-57 85 591 17 26 60
-54 85 591 20 29 62
-52 85 591 19 28 61
-50 85 590 20 29 60
-47 84 589 20 29 60
-45 84 588 20 29 60
-42 84 587 20 27 57
-40 84 587 18 24 55
-37 84 586 16 21 51
-35 84 586 17 22 54
-33 84 585 19 24 55
-30 84 585 21 26 58
-28 84 585 21 26 57
-26 84 584 19 24 56
-23 83 583 17 22 54
-21 83 583 17 22 54
-19 83 582 19 24 55
-16 83 581 22 27 57
-14 83 580 22 27 59
-12 83 580 21 26 58
-9 83 579 19 24 56
-7 83 578 23 28 60
-5 83 577 22 29 58
-2 83 577 20 27 56
0 82 576 17 24 53
2 82 575 18 23 52
5 82 575 16 21 51
7 82 575 17 22 52
9 82 574 15 20 49
11 82 573 17 22 50
14 82 573 17 23 49
16 82 572 16 23 49
18 82 572 15 22 48
21 82 571 16 23 51
23 82 570 16 23 51
25 81 569 20 27 55
27 81 569 22 27 56
29 81 568 23 28 58
32 81 567 20 25 55
34 81 566 21 26 56
36 81 565 21 28 57
38 81 564 22 29 58
40 81 563 21 28 57
43 81 563 22 29 58
45 81 562 22 30 58
47 80 561 24 31 59
49 80 561 22 31 59
52 80 560 22 31 60
54 80 560 19 28 57
56 80 560 22 29 58
58 80 559 23 30 59
60 80 559 23 30 59
63 80 558 21 27 59
65 80 557 20 29 60
67 80 556 21 30 61
69 80 555 23 32 63
71 80 554 23 32 63
73 80 553 24 33 64
75 79 552 22 31 64
77 79 551 21 32 64
80 79 550 23 34 66
82 79 548 21 32 64
84 79 547 22 31 62
86 79 545 25 34 65
88 78 544 25 34 67
90 79 544 24 33 66
92 78 543 24 33 65
94 78 542 26 35 66
96 78 542 25 34 65
98 78 541 23 34 64
100 78 540 23 34 64
102 78 539 22 32 67
104 78 538 22 31 63
106 78 537 22 30 57
108 78 536 18 26 50
110 78 535 17 23 47
113 78 535 16 22 44
115 78 535 18 21 40
117 78 534 18 21 38
119 78 534 16 21 40
121 78 533 13 18 37
124 78 534 12 18 36
126 78 534 12 17 34
128 78 534 11 15 32
130 78 534 14 16 34
132 78 533 15 18 35
135 78 533 15 18 34
137 78 533 16 21 39
139 78 533 18 21 40
141 78 533 18 21 40
144 78 534 14 19 39
146 78 534 16 21 41
149 78 534 17 22 42
151 78 534 17 22 44
153 78 533 17 22 44
155 78 533 19 24 47
157 78 532 18 24 46
160 78 532 18 24 47
162 78 531 18 24 47
164 78 531 17 23 47
166 78 531 15 21 43
169 78 531 16 21 41
171 79 532 16 20 39
174 79 532 16 19 37
176 79 533 15 18 35
179 79 534 16 19 34
182 80 536 17 20 35
185 80 538 17 20 35
188 80 540 16 19 33
191 81 542 15 17 30
194 81 543 14 16 29
197 81 545 15 17 30
201 82 547 13 15 28
205 82 551 17 18 30
208 83 554 18 18 30
212 84 558 18 18 30
217 84 563 18 18 30
221 85 567 17 17 29
225 86 570 16 17 30
229 86 574 17 17 29
234 87 579 18 18 30
238 88 583 18 18 30
243 89 588 19 19 31
248 90 593 19 18 32
253 91 599 18 19 32
258 92 605 19 21 33
264 93 612 19 21 33
270 94 618 20 22 35
275 95 624 18 20 33
281 96 629 18 20 32
285 96 632 17 19 31
289 97 635 14 14 20
292 97 635 10 11 16
295 97 634 11 10 15
297 97 632 11 10 16
299 97 630 11 10 15
301 96 626 11 10 16
302 96 623 12 11 17
304 96 620 13 12 18
306 95 617 12 12 18
307 95 614 11 12 17
309 95 611 12 13 17
310 94 608 13 14 19
312 94 606 13 14 18
314 94 604 14 14 22
316 94 602 15 15 22
318 94 600 14 14 22
320 93 598 15 15 23
323 93 596 16 16 26
325 93 595 13 15 23
327 93 593 16 16 24
330 93 592 15 15 25
333 93 592 17 17 27
335 93 590 17 17 28
337 93 589 16 18 30
340 93 588 15 17 29
343 93 587 14 16 29
346 93 587 15 18 32
348 93 586 16 18 30
352 94 587 19 19 29
356 94 588 17 17 30
361 94 590 48 40 41
365 95 592 87 56 42
370 95 595 93 57 45
375 96 597 96 60 44
380 97 600 98 63 44
385 97 602 102 64 44
390 98 604 103 65 45
394 98 606 108 67 49
400 99 610 105 65 47
250 57 343 24 20 19
250 57 340 133 122 118
250 56 337 154 132 131
250 56 334 151 124 123
249 55 330 133 99 98
248 55 326 142 107 105
249 55 324 143 114 118
248 54 320 134 108 111
247 54 317 139 114 120
244 53 310 140 123 130
239 51 301 146 123 131
234 50 292 150 120 128
230 49 285 149 105 115
229 48 281 142 85 94
229 48 279 125 60 64
230 48 278 113 52 49
231 48 277 101 40 41
232 48 276 87 33 33
232 48 274 130 101 97
233 47 272 142 112 110
232 47 269 143 110 109
233 47 268 135 100 98
233 47 266 126 93 86
234 47 265 115 85 76
235 47 264 106 76 66
237 47 264 93 71 58
239 47 263 84 66 54
241 47 263 83 63 52
243 47 264 80 61 48
246 48 265 80 61 47
252 48 269 85 68 53
262 50 277 94 75 60
269 51 282 90 71 54
272 51 283 101 82 63
273 51 282 95 77 51
276 51 282 92 71 47
277 51 281 79 59 35
277 51 279 86 67 52
278 51 277 85 66 52
277 51 274 95 73 60
275 50 270 88 69 55
275 50 267 93 74 60
274 49 264 108 93 80
274 49 262 117 109 96
274 49 260 121 115 103
274 49 258 119 112 100
275 49 256 107 104 89
276 48 255 100 94 78
278 49 255 88 82 66
279 49 254 83 77 63
280 48 252 77 71 55
281 48 251 75 66 50
-983 229 1337 127 96 85
-976 229 1338 149 117 107
-967 229 1338 157 127 120
-961 228 1340 169 122 88
-953 228 1341 123 95 50
-949 229 1347 142 103 55
-1187 371 2325 60 58 53
-1176 370 2327 63 58 55
-1165 370 2327 63 60 55
-1153 370 2328 64 64 60
-1142 369 2329 66 67 62
-1011 365 2340 101 106 102
-211 103 682 73 95 148
-206 103 677 60 79 138
-202 102 673 42 67 123
-198 101 670 42 74 119
-194 101 667 45 68 115
-191 100 665 41 63 110
-187 100 662 38 59 104
-184 100 660 35 54 97
-181 99 659 31 49 92
-178 99 658 23 40 82
-174 99 657 26 40 78
-172 99 657 19 32 66
-169 99 657 18 27 57
-166 99 657 18 26 54
-163 99 657 15 22 48
-161 99 657 17 23 48
-158 98 657 18 24 49
-155 99 658 14 21 47
-152 99 658 16 22 46
-150 98 658 15 21 43
-147 99 659 12 16 36
-145 99 660 13 16 29
-142 99 661 12 14 26
-139 99 662 12 14 24
-137 99 664 11 14 23
-135 99 665 10 13 22
-132 99 667 9 12 21
-130 99 668 9 12 19
-127 100 670 8 11 18
-125 100 672 7 10 17
-123 100 675 5 8 15
-120 101 677 5 8 17
-118 101 680 5 8 17
-115 101 682 11 12 23
-113 101 681 32 41 63
-109 101 678 24 37 73
-106 100 673 21 33 74
-101 98 663 30 42 82
-97 96 651 25 37 77
-92 95 639 26 39 81
-88 93 628 30 43 85
-85 92 620 28 41 84
-81 91 613 29 41 83
-78 90 608 28 40 82
-75 89 604 31 43 85
-72 89 601 32 44 88
-70 88 598 28 39 84
-67 88 595 25 35 73
-64 88 593 16 27 57
-62 87 592 18 27 60
-59 87 591 17 26 59
-57 87 590 17 26 57
-54 87 590 20 29 60
-52 87 590 21 28 60
-50 87 589 19 28 59
-47 87 589 22 28 60
-45 87 588 20 30 58
-42 87 588 18 27 56
-40 86 587 16 24 53
-38 86 587 17 24 53
-35 86 586 18 23 53
-33 86 586 18 25 54
-30 86 585 20 26 58
-28 86 585 16 24 55
-26 86 584 17 23 53
-23 86 583 16 21 52
-21 86 583 17 22 54
-19 86 582 19 23 58
-16 85 581 21 25 60
-14 85 580 22 27 59
-12 85 580 19 24 56
-9 85 578 20 25 57
-7 85 578 22 27 59
-5 85 577 22 27 56
-2 85 577 21 26 55
0 85 576 17 23 52
2 85 575 15 22 50
5 85 575 15 22 50
7 84 574 14 21 47
9 84 573 16 23 51
11 84 573 16 23 51
14 84 572 17 24 52
16 84 571 19 24 54
18 84 571 21 26 56
20 84 570 21 27 57
23 84 569 23 28 58
25 84 568 23 28 58
27 83 567 18 27 56
29 83 566 19 28 57
32 83 565 21 28 57
34 83 564 23 30 59
36 83 564 22 28 60
38 83 563 22 29 58
40 83 562 22 30 59
43 83 561 22 30 57
45 83 561 21 30 57
47 83 560 23 30 58
49 82 559 22 29 58
51 82 559 20 26 58
54 82 559 22 28 60
56 82 558 21 27 59
58 82 558 22 28 60
60 82 557 20 28 60
62 82 556 25 31 63
65 82 555 22 31 64
67 82 554 24 33 66
69 82 553 24 34 67
71 82 552 24 35 67
73 82 551 22 33 65
75 81 550 22 31 62
77 81 548 20 31 63
79 81 547 21 32 63
81 81 546 22 33 64
83 81 544 23 34 66
85 81 543 24 35 67
87 80 542 25 36 66
89 80 541 25 35 65
91 80 540 24 35 66
94 80 540 23 34 66
96 80 539 23 34 66
98 80 539 22 33 63
100 80 538 23 34 64
102 80 537 23 34 66
104 80 536 20 29 59
106 80 535 21 28 55
108 80 535 20 26 51
110 80 535 17 22 42
112 80 534 15 20 40
115 80 534 16 20 40
117 80 533 14 19 38
119 80 533 16 19 38
121 80 533 15 18 37
123 80 533 13 17 36
126 80 533 12 18 36
128 80 533 12 18 32
130 80 533 13 19 35
132 80 533 15 19 38
135 80 533 17 19 39
137 80 533 18 20 41
139 80 533 16 21 41
142 80 533 16 21 41
144 80 533 15 20 40
146 80 533 17 22 42
148 80 533 17 22 44
151 80 533 17 22 45
153 81 533 17 21 46
155 80 532 18 23 48
157 80 531 17 23 48
159 80 531 17 23 48
162 80 531 17 24 50
164 80 530 17 23 48
166 80 530 16 20 45
168 81 530 15 20 42
171 81 531 15 20 40
173 81 531 17 20 40
176 81 532 17 18 36
179 81 534 15 18 35
182 82 536 17 19 34
185 82 538 18 20 35
188 83 540 16 18 32
191 83 542 16 18 31
195 83 544 16 18 31
198 84 546 15 17 30
201 84 548 13 15 28
205 85 552 15 17 30
209 85 555 16 18 31
213 86 560 17 19 32
218 87 565 18 17 31
222 88 569 16 16 30
226 89 573 18 18 30
230 89 577 17 17 29
235 90 581 17 17 27
239 91 586 17 17 29
244 92 590 18 18 30
248 92 594 18 18 29
253 93 600 16 18 30
259 94 606 17 19 31
265 96 613 20 20 32
270 97 618 20 20 32
275 98 624 21 21 33
281 98 629 20 20 30
286 99 633 17 17 27
290 100 635 13 13 21
293 100 636 10 11 16
296 100 636 11 10 15
298 100 634 11 10 16
300 100 631 12 11 16
302 99 628 11 10 15
303 99 625 12 12 16
305 98 621 13 12 16
306 98 618 12 12 16
307 98 614 12 13 17
309 97 611 13 13 18
310 97 608 12 13 18
312 97 606 12 13 18
315 97 604 12 15 21
317 96 602 12 15 21
319 96 600 13 14 20
321 96 598 15 16 21
323 96 596 14 15 20
325 96 595 15 15 22
328 96 594 15 15 23
330 96 593 16 16 24
333 96 592 15 15 23
335 96 590 14 17 26
338 96 589 17 17 25
340 96 588 16 16 24
343 96 587 14 17 24
346 96 587 17 17 27
349 96 587 16 18 28
353 96 588 19 20 30
357 97 590 53 44 33
361 97 591 96 58 47
366 98 593 94 59 45
370 98 595 94 59 42
374 99 596 98 62 43
379 99 598 101 64 45
383 99 599 103 65 46
388 100 601 105 67 46
392 100 602 108 67 48
397 101 604 114 69 52
401 101 605 109 68 49
247 58 342 21 16 15
249 58 341 50 44 38
248 58 337 140 124 117
248 57 334 148 125 121
247 57 330 153 123 121
245 56 325 143 110 104
245 56 322 140 103 96
245 55 319 128 98 96
245 55 316 138 113 115
244 54 312 137 120 125
240 53 305 141 122 128
235 52 296 147 123 133
231 51 288 147 116 124
228 50 283 140 93 102
228 49 280 131 68 79
229 49 279 114 52 55
229 49 277 109 46 47
230 49 276 92 37 35
232 49 275 80 37 33
232 49 273 136 108 104
232 49 271 143 115 114
231 48 268 144 110 108
232 48 267 134 94 92
233 48 266 123 87 81
235 48 265 110 79 70
236 48 264 98 69 61
237 48 263 89 67 56
239 48 263 82 64 52
241 48 263 80 61 50
244 49 264 79 59 50
248 49 266 81 59 48
254 50 271 85 65 54
265 52 280 91 75 60
271 53 284 83 66 50
275 53 286 106 86 62
276 53 284 106 85 63
276 53 282 101 80 59
276 53 280 72 52 31
277 53 278 70 52 37
276 52 275 87 70 55
276 52 273 90 72 58
274 51 269 81 63 51
274 51 266 95 81 68
273 51 263 106 97 82
273 50 261 118 112 100
273 50 259 124 116 106
273 50 257 120 114 102
274 50 255 109 103 89
275 50 254 101 95 79
276 50 253 92 87 68
277 50 252 89 82 68
279 50 251 81 80 62
280 50 250 80 74 58
-998 236 1333 183 88 71
-990 236 1334 177 80 63
-982 235 1334 178 80 65
-974 235 1335 171 70 56
-965 234 1334 157 61 45
-959 234 1337 144 46 36
-951 234 1338 126 39 28
-947 234 1344 114 37 26
-942 235 1348 104 52 48
-939 235 1356 123 81 77
-935 236 1362 115 83 69
-1186 380 2321 104 93 85
-1174 380 2322 112 98 88
-1163 379 2322 116 105 95
-1152 379 2324 120 111 99
-1140 379 2324 120 111 101
-1020 375 2335 151 146 138
-1010 375 2338 147 144 136
-1001 375 2341 148 146 140
-990 375 2342 147 144 137
-215 107 685 63 87 143
-209 106 677 59 81 137
-205 105 672 55 77 133
-201 104 669 48 71 122
-197 104 666 43 66 115
-193 103 663 41 65 113
-190 103 661 36 58 105
-186 102 659 33 54 96
-183 102 658 29 48 88
-180 102 657 25 43 79
-177 102 656 28 44 80
-174 101 655 25 38 73
-171 101 655 23 34 66
-168 101 655 21 29 60
-166 101 655 18 28 55
-163 101 656 16 23 51
-160 101 656 15 23 48
-158 101 656 17 24 50
-155 101 656 14 24 51
-152 101 657 15 21 43
-149 101 657 14 19 39
-147 101 658 13 15 33
-144 101 659 12 14 26
-142 101 660 11 13 25
-140 102 662 11 12 22
-137 102 663 11 11 21
-135 102 665 11 11 19
-132 102 666 10 10 18
-130 102 668 10 10 18
-127 102 670 10 10 18
-125 103 672 8 10 15
-123 103 675 8 9 15
-120 104 678 8 7 15
-118 104 681 7 7 15
-116 104 682 6 6 16
-113 104 683 11 8 16
-110 104 681 12 15 31
-106 103 678 25 35 59
-103 102 672 26 38 76
-99 101 664 24 36 74
-95 99 653 29 41 81
-90 97 639 27 39 80
-86 96 628 25 38 80
-82 94 618 25 38 80
-79 93 611 26 39 81
-75 92 605 32 45 87
-72 91 601 31 44 88
-70 91 598 27 40 84
-67 90 595 24 32 71
-64 90 593 17 26 57
-62 90 592 17 26 56
-59 90 591 19 25 57
-57 89 590 19 29 60
-54 89 590 22 28 60
-52 89 590 20 27 59
-50 89 589 20 26 58
-47 89 588 20 26 58
-45 89 588 17 26 55
-42 89 587 18 25 54
-40 89 587 17 23 55
-38 89 586 16 21 53
-35 89 586 16 22 54
-33 89 586 17 23 54
-30 88 585 20 26 58
-28 88 584 19 24 56
-26 88 583 16 21 53
-23 88 583 15 20 52
-21 88 582 17 22 54
-19 88 582 18 24 55
-16 88 581 22 27 59
-14 88 580 21 26 58
-12 88 579 20 25 57
-9 87 578 20 26 58
-7 87 577 20 27 59
-5 87 576 21 28 56
-2 87 576 19 26 54
0 87 575 17 23 52
2 87 574 16 21 50
5 87 574 16 21 50
7 87 573 16 23 52
9 86 572 18 25 53
11 86 571 19 26 55
14 86 571 21 28 57
16 86 570 21 27 56
18 86 570 23 28 58
20 86 569 22 29 58
23 86 568 23 30 59
25 86 566 22 29 58
27 85 565 23 30 61
29 85 564 23 29 61
32 85 563 24 30 62
34 85 562 25 31 63
36 85 562 25 31 63
38 85 561 23 29 61
40 85 560 22 28 60
43 85 560 23 31 63
45 85 559 23 31 62
47 85 559 25 31 63
49 85 558 23 29 61
51 85 558 26 32 64
54 84 557 25 31 63
56 84 556 22 29 61
58 84 555 22 31 62
60 84 555 26 32 65
62 84 554 25 34 67
64 84 553 28 34 66
66 84 551 27 35 67
68 84 550 24 33 64
71 83 549 24 33 64
73 83 548 24 34 66
75 83 547 22 31 64
77 83 546 22 33 65
79 83 544 22 33 65
81 83 543 24 35 67
83 82 541 25 34 67
85 82 540 28 37 70
87 82 540 25 34 66
89 82 539 24 33 64
91 82 538 23 32 64
93 82 538 22 31 64
96 82 538 21 30 63
98 82 537 21 30 61
100 82 536 24 33 64
102 82 536 22 28 60
104 82 535 20 25 54
106 82 535 17 22 47
108 82 534 18 22 43
110 82 534 18 20 41
113 82 534 17 19 40
115 82 533 16 18 39
117 82 533 16 17 38
119 82 533 14 19 38
121 82 533 14 16 37
123 82 533 13 16 35
126 82 533 15 18 37
128 82 533 15 19 37
130 82 533 13 18 37
132 82 532 14 19 38
135 82 532 14 20 38
137 82 532 15 20 40
139 82 532 17 22 41
141 82 532 19 24 45
144 82 532 16 21 41
146 82 532 16 21 43
148 82 532 16 22 44
150 83 532 17 23 46
153 83 532 17 23 47
155 83 532 16 22 46
157 83 531 17 23 47
159 82 530 19 25 49
161 83 530 17 23 46
163 82 529 17 23 47
166 83 529 16 22 46
168 83 529 18 23 45
171 83 530 14 19 39
173 83 530 12 17 36
176 83 531 14 19 38
179 84 533 14 17 34
182 84 535 15 16 34
185 84 537 17 18 35
188 85 540 16 18 33
192 85 542 16 18 33
195 86 544 15 17 30
198 86 546 14 17 31
201 87 549 14 17 30
205 87 553 15 17 30
209 88 556 15 17 30
214 89 561 16 18 31
218 90 566 17 19 32
223 91 571 19 18 32
227 91 575 18 17 31
232 92 580 18 18 30
236 93 584 18 18 30
240 94 588 18 18 28
245 94 592 20 20 30
249 95 596 18 18 28
254 96 602 16 19 26
259 97 607 17 20 29
265 98 614 17 19 31
270 99 619 19 19 31
276 100 625 21 21 33
281 101 629 20 20 32
286 102 633 18 18 29
290 103 636 13 13 21
294 103 638 11 12 17
297 103 637 11 10 15
299 103 636 10 9 14
301 103 633 10 9 14
302 102 629 11 10 14
304 102 626 12 12 15
305 101 622 13 12 15
307 101 619 12 11 16
308 100 615 12 13 17
309 100 612 12 12 16
311 100 609 12 12 17
313 99 606 11 12 17
315 99 604 12 13 18
317 99 602 13 13 18
319 99 600 13 12 17
321 99 598 13 12 17
323 99 597 14 13 19
325 99 595 15 14 20
328 99 594 15 14 22
331 99 593 14 16 21
333 98 591 16 16 23
335 98 590 16 17 22
338 98 589 16 16 26
340 98 588 17 17 27
343 98 588 17 17 27
347 99 588 19 18 26
350 99 588 17 20 29
354 99 590 56 43 40
358 100 591 89 57 42
362 100 592 93 60 45
366 100 593 97 61 45
370 101 594 98 62 45
374 101 595 99 64 45
377 101 595 101 65 46
381 102 596 103 66 48
385 102 597 104 65 48
390 102 598 107 68 50
394 103 599 111 70 50
398 103 601 112 71 55
247 60 341 20 17 8
247 59 338 95 88 77
245 59 333 140 116 109
243 58 328 144 115 111
243 57 324 143 115 110
240 56 318 144 112 103
240 56 315 133 97 85
240 56 313 133 99 96
240 55 310 138 116 122
239 55 306 135 118 124
235 54 299 139 121 127
232 53 292 147 124 132
229 52 286 141 105 115
228 51 282 138 83 94
227 51 279 124 64 72
228 51 278 112 48 52
229 50 277 99 39 39
231 50 276 81 31 30
232 50 275 91 51 49
231 50 272 141 117 113
231 50 270 145 117 116
231 50 268 142 107 107
233 49 267 128 89 88
233 49 265 115 78 75
234 49 264 102 71 66
235 49 263 91 65 58
236 49 262 82 62 52
238 49 262 79 59 50
240 49 262 77 58 48
243 50 263 75 57 47
248 50 266 76 56 45
255 52 272 81 63 53
265 53 280 87 72 60
271 54 284 87 71 56
275 55 286 100 79 60
275 54 283 98 77 58
276 54 282 89 68 51
275 54 279 66 47 30
276 54 277 66 50 34
275 53 274 82 64 50
275 53 272 79 57 46
274 53 268 76 58 46
273 52 265 98 86 75
272 52 262 112 104 93
271 51 259 120 116 104
272 51 258 125 117 106
272 51 255 120 114 102
273 51 254 108 104 92
273 51 252 103 97 81
275 51 252 94 87 71
277 51 251 90 82 69
278 51 250 84 78 63
281 51 251 76 73 58
-997 242 1331 178 81 63
-989 242 1331 171 72 54
-980 241 1331 178 76 61
-972 241 1332 175 73 59
-965 240 1333 172 72 56
-959 240 1336 155 57 44
-952 240 1338 141 46 35
-948 241 1344 137 46 36
-943 241 1349 136 45 32
-940 242 1356 128 39 33
-935 242 1361 116 39 29
-933 243 1370 116 34 27
-930 244 1377 104 40 52
-1353 389 2251 99 88 104
-1339 388 2249 159 159 172
-1172 389 2316 142 120 106
-1161 389 2317 146 118 99
-1149 388 2317 147 115 91
-1138 388 2318 143 118 94
-1010 384 2335 139 96 91
-1000 384 2338 132 95 89
-990 384 2340 129 95 86
-969 384 2343 123 85 78
-218 110 686 70 97 148
-212 108 677 55 82 136
-208 108 672 58 80 139
-204 107 668 47 70 124
-200 106 666 51 72 125
-196 106 663 38 62 110
-193 105 661 37 59 108
-189 105 659 35 56 101
-186 105 657 31 49 92
-183 104 656 31 48 86
-180 104 655 22 38 74
-177 104 654 23 36 70
-174 104 653 19 30 62
-171 104 654 22 29 59
-168 104 654 21 27 56
-165 104 654 19 26 54
-163 104 655 16 23 51
-160 104 655 15 21 47
-157 104 655 17 23 47
-155 104 655 16 22 46
-152 104 656 13 18 40
-149 104 656 15 17 35
-147 104 657 12 15 30
-144 104 659 12 14 26
-142 104 660 10 12 24
-139 104 661 10 12 24
-137 104 663 13 13 23
-135 105 665 11 11 21
-132 105 666 11 11 19
-130 105 668 10 10 18
-127 105 670 9 9 17
-125 106 673 7 10 17
-123 106 675 7 7 15
-120 106 678 8 7 13
-118 107 681 8 7 13
-116 107 683 10 9 14
-113 107 684 7 7 15
-110 107 684 8 8 20
-107 107 682 10 12 26
-104 106 678 26 33 61
-100 105 673 26 35 69
-96 104 665 24 36 78
-92 102 654 26 39 81
-88 100 640 25 40 81
-83 98 628 28 41 83
-79 96 617 29 42 84
-76 95 609 30 43 84
-73 94 604 31 44 88
-70 94 600 30 43 86
-67 93 596 23 31 68
-64 92 593 20 29 61
-62 92 592 21 28 56
-59 92 590 21 26 58
-57 92 590 21 26 58
-54 92 590 21 26 58
-52 92 589 19 24 56
-50 92 589 20 25 57
-47 91 588 19 24 56
-45 91 587 17 24 53
-42 91 587 15 22 51
-40 91 587 15 20 49
-38 91 586 15 20 49
-35 91 586 16 22 48
-33 91 586 15 21 47
-30 91 585 17 22 51
-28 91 584 18 24 50
-26 91 583 15 21 48
-23 91 583 16 22 49
-21 90 582 17 22 51
-19 90 581 21 26 55
-16 90 580 21 28 57
-14 90 580 21 27 59
-12 90 579 22 27 59
-9 90 578 21 27 59
-7 90 577 22 28 60
-5 89 576 22 27 56
-2 89 575 18 24 53
0 89 575 18 24 53
2 89 574 17 24 53
5 89 573 17 23 54
7 89 573 19 24 54
9 89 572 21 27 58
11 89 571 20 26 58
14 88 570 21 29 60
16 88 569 21 27 59
18 88 568 24 30 62
20 88 568 21 30 62
23 88 567 22 31 64
25 88 565 21 31 63
27 88 564 25 33 65
29 87 563 23 31 62
31 87 562 23 30 62
34 87 561 25 31 63
36 87 561 24 30 62
38 87 560 24 30 62
40 87 559 24 30 62
42 87 558 27 33 65
45 87 558 23 29 60
47 87 557 25 32 61
49 87 556 24 31 60
51 87 556 25 31 63
53 87 556 25 31 63
56 86 555 24 33 64
58 86 554 22 31 62
60 86 553 24 33 65
62 86 552 25 34 66
64 86 550 25 34 67
66 86 549 25 34 67
68 85 548 26 35 68
70 85 547 23 33 65
72 85 546 22 33 65
74 85 545 21 32 64
76 85 543 21 32 63
78 85 542 23 34 64
81 85 541 24 35 67
82 84 539 26 37 69
85 84 538 25 36 68
87 84 537 24 33 66
89 84 537 23 32 63
91 84 536 22 31 62
93 84 536 22 31 62
95 84 536 21 30 61
97 84 535 22 29 58
99 84 535 19 26 55
102 84 535 19 25 49
104 84 534 16 21 43
106 84 534 16 21 42
108 84 533 15 20 40
110 84 533 17 19 42
112 84 533 16 18 39
115 84 533 17 19 40
117 84 532 15 18 37
119 84 533 14 17 35
121 84 533 14 17 34
124 84 533 14 17 36
126 84 533 16 19 38
128 84 533 12 17 36
130 84 532 13 18 38
132 84 532 14 19 39
135 84 532 16 21 41
137 84 531 19 21 42
139 84 531 17 22 43
141 84 531 16 21 43
143 84 531 13 19 41
146 85 532 16 21 43
148 85 532 14 19 41
150 85 531 14 19 44
153 85 531 15 21 46
155 85 531 16 22 48
157 85 530 17 23 47
159 85 529 20 25 49
161 85 529 17 23 46
164 85 529 19 25 49
166 85 528 18 24 48
168 85 529 19 24 45
170 85 529 15 19 39
173 85 529 16 18 38
176 85 530 16 17 36
179 86 532 17 18 36
182 86 534 18 20 35
185 87 537 17 19 36
188 87 539 17 19 35
192 88 543 16 19 34
195 88 545 15 18 33
198 89 547 13 17 31
202 89 550 14 18 30
206 90 554 14 18 30
210 91 558 16 18 31
214 91 562 15 17 30
219 92 568 16 18 31
223 93 572 16 18 30
228 94 577 16 18 30
232 95 582 16 18 29
237 96 586 17 20 29
241 97 590 18 18 28
246 97 594 17 17 28
250 98 598 17 17 29
255 99 603 15 17 29
260 100 608 15 17 29
265 101 614 15 17 29
271 102 619 18 18 30
276 103 624 18 18 30
281 104 629 17 17 30
286 105 633 17 17 28
290 105 636 13 13 23
294 106 638 12 12 17
298 106 639 11 10 15
300 106 637 10 9 15
302 106 634 10 9 14
303 105 631 11 10 15
305 105 627 12 11 15
306 104 623 13 12 16
307 104 619 12 11 17
309 103 616 13 12 18
310 103 612 12 13 17
311 102 609 13 14 19
313 102 607 14 13 18
315 102 604 14 13 19
317 102 602 13 12 18
319 102 600 13 12 20
321 102 599 15 14 22
324 101 597 15 14 21
326 101 595 16 15 23
328 101 594 16 15 23
331 101 593 15 16 21
333 101 591 15 15 22
336 101 591 16 16 26
338 101 590 17 17 27
341 101 589 17 17 27
344 101 589 18 18 27
348 102 590 21 20 30
351 102 590 56 44 41
355 102 591 85 57 46
359 103 592 91 59 44
363 103 593 96 60 44
366 103 593 99 62 45
370 103 593 100 65 46
374 104 594 101 64 46
377 104 594 103 66 48
381 104 595 104 67 50
384 104 595 104 65 50
388 105 595 104 64 47
392 105 596 108 66 50
396 105 597 110 68 51
401 106 599 111 70 51
245 61 341 98 68 50
245 61 338 61 48 34
243 60 333 125 117 98
241 59 327 138 116 103
238 58 321 145 114 104
236 57 315 146 112 103
235 57 311 145 109 97
235 56 308 128 91 78
235 56 306 137 106 103
236 56 304 146 116 126
234 55 300 142 118 127
232 54 294 139 116 128
230 53 289 146 120 133
228 53 284 132 97 105
227 52 281 127 74 84
227 52 279 114 56 64
228 52 278 104 42 45
230 52 277 92 35 37
231 52 276 74 27 28
231 52 274 100 72 69
231 51 272 140 119 116
231 51 269 143 114 115
232 51 268 135 100 99
232 51 266 118 80 79
233 51 265 106 72 70
234 50 264 96 64 59
235 50 263 85 58 52
236 50 262 76 56 46
238 51 262 75 55 44
240 51 262 73 55 43
243 51 263 73 55 43
248 52 266 72 52 41
255 53 271 76 58 48
264 55 279 85 67 53
270 56 283 80 64 48
275 56 285 85 67 53
275 56 283 87 69 55
276 56 282 76 51 37
276 55 279 58 41 23
275 55 276 62 49 32
275 55 274 71 53 41
275 54 271 69 48 38
273 54 267 80 64 54
272 53 264 97 87 78
271 53 261 115 109 97
270 53 258 124 116 105
270 52 256 124 116 105
271 52 254 119 113 101
272 52 253 109 103 89
272 52 251 101 94 76
274 52 251 92 84 68
277 52 251 88 81 65
279 52 251 84 78 62
286 53 255 76 72 61
-995 248 1328 170 73 54
-987 247 1328 162 61 46
-979 247 1329 162 60 45
-972 247 1330 164 62 48
-965 246 1332 169 71 58
-959 246 1335 154 58 44
-952 246 1338 144 50 40
-949 247 1344 140 48 39
-944 247 1349 140 47 39
-940 248 1355 134 44 34
-936 249 1361 130 43 32
-933 250 1369 128 44 33
-930 250 1377 124 38 48
-1353 399 2250 57 55 69
-1341 399 2250 171 168 185
-1329 398 2252 140 145 123
-1315 397 2249 153 140 122
-1157 397 2308 150 147 146
-1146 397 2309 128 133 143
-1135 397 2310 137 139 152
-988 394 2335 141 141 149
-966 393 2335 127 129 138
-217 112 681 59 85 144
-211 111 673 59 85 144
-207 110 669 52 76 131
-203 109 666 47 69 121
-199 109 663 49 69 119
-195 108 660 39 57 103
-192 108 658 41 59 103
-189 107 656 34 53 95
-185 107 655 30 46 87
-182 107 654 27 42 78
-179 107 653 20 34 71
-176 106 652 23 38 69
-173 106 652 21 32 61
-171 106 653 20 28 57
-168 106 653 18 24 51
-165 106 653 18 25 54
-163 106 654 16 23 49
-160 106 654 16 22 48
-157 106 654 16 22 45
-154 106 654 16 21 42
-152 106 655 12 17 36
-149 106 656 14 16 31
-147 106 657 15 15 28
-144 106 658 13 15 27
-142 107 659 10 12 24
-139 107 661 9 12 21
-137 107 663 11 11 21
-135 107 665 10 10 19
-132 107 666 10 10 18
-130 108 668 9 9 17
-128 108 671 9 9 17
-125 108 673 8 8 15
-123 109 676 8 8 13
-121 109 679 8 7 13
-118 110 682 8 7 13
-116 110 684 9 8 16
-113 110 685 8 7 13
-110 110 685 7 7 15
-108 110 684 11 12 17
-104 109 681 11 19 44
-101 109 677 23 32 64
-97 108 671 22 32 71
-94 106 664 24 37 77
-89 105 654 26 40 78
-85 103 641 26 38 78
-81 100 627 28 40 80
-77 99 617 30 44 85
-73 97 609 33 46 88
-70 96 603 26 39 81
-67 95 597 24 34 72
-64 95 594 20 30 63
-62 95 592 18 26 55
-59 94 590 18 23 55
-57 94 589 19 24 56
-54 94 589 21 26 58
-52 94 589 20 25 57
-49 94 588 19 24 56
-47 94 588 18 23 55
-45 94 587 20 25 55
-42 94 587 14 19 49
-40 93 586 13 20 49
-38 93 586 14 21 50
-35 93 586 18 23 53
-33 93 585 17 22 52
-30 93 584 19 24 54
-28 93 584 19 24 55
-26 93 583 16 22 51
-23 93 582 15 22 50
-21 93 581 18 24 53
-19 93 581 22 27 57
-16 92 580 23 28 60
-14 92 579 21 27 59
-12 92 578 19 25 57
-9 92 577 20 26 58
-7 92 576 18 24 56
-5 92 575 20 26 58
-2 92 575 17 24 54
0 91 574 17 24 54
2 91 573 18 25 56
5 91 572 18 25 56
7 91 571 18 26 57
9 91 571 19 26 58
11 91 569 19 26 58
14 91 569 20 26 60
16 90 568 19 28 61
18 90 567 21 30 63
20 90 566 20 29 62
23 90 565 22 31 62
25 90 564 23 32 63
27 90 562 21 30 62
29 89 561 22 31 62
31 89 560 21 30 61
34 89 559 22 31 62
36 89 559 24 30 62
38 89 558 24 30 62
40 89 557 24 30 62
42 89 557 24 31 63
45 89 556 25 31 63
47 89 556 25 31 63
49 89 555 27 33 65
51 88 554 30 36 70
53 88 553 27 33 67
55 88 553 27 33 67
57 88 551 27 33 67
60 88 550 28 37 70
62 88 549 29 38 70
64 88 548 25 35 67
66 88 547 25 34 66
68 87 546 25 34 66
70 87 544 23 33 65
72 87 543 26 36 68
74 87 542 26 35 68
76 87 541 26 35 68
78 86 539 25 34 67
80 86 538 26 35 68
82 86 537 25 35 67
84 86 536 23 32 65
86 86 535 22 30 63
88 86 535 24 30 62
91 86 535 23 29 61
93 86 535 23 29 61
95 86 535 22 28 57
97 86 534 20 27 56
99 86 534 19 25 52
101 86 533 20 24 49
104 86 533 18 23 45
106 86 533 17 20 41
108 86 533 17 19 40
110 86 533 18 20 43
112 86 533 16 18 39
115 86 533 17 19 40
117 86 532 16 19 38
119 86 532 15 17 37
121 86 532 15 17 38
123 86 532 15 18 37
126 86 532 15 18 37
128 86 532 14 20 39
130 86 532 15 21 42
132 86 531 15 21 43
134 86 531 18 23 45
137 86 531 18 23 45
139 86 530 16 21 43
141 87 531 15 20 42
143 87 531 16 21 43
146 87 531 16 20 44
148 87 531 16 20 44
150 87 531 18 22 47
152 87 530 18 22 47
155 87 530 16 22 44
157 87 529 17 23 45
159 87 528 19 25 47
161 87 528 17 23 46
163 87 528 18 24 47
165 87 527 15 22 41
168 87 528 16 21 40
171 87 529 16 19 36
173 87 529 16 19 37
176 87 530 15 18 35
179 88 532 16 18 32
182 88 534 16 18 30
185 89 537 17 19 33
189 89 540 17 19 33
192 90 543 16 20 32
196 91 546 17 19 32
199 91 548 16 18 31
203 92 552 16 18 31
207 93 556 16 18 30
211 93 560 16 18 31
215 94 565 16 17 31
220 95 570 18 17 31
224 96 574 16 18 30
229 97 580 15 17 29
233 98 584 16 19 28
238 99 588 17 18 31
242 99 592 18 18 30
246 100 596 18 18 30
251 101 600 16 16 27
255 102 604 18 17 25
260 103 609 18 18 28
266 104 614 18 18 28
271 105 619 17 17 29
276 106 624 19 19 29
281 107 629 18 18 28
286 107 633 14 17 26
290 108 636 14 14 23
295 109 639 11 12 17
298 109 639 11 10 15
301 109 639 11 10 15
303 109 636 12 11 15
305 108 633 12 12 15
305 108 628 13 13 15
306 107 624 13 12 15
308 107 620 12 12 16
309 106 617 13 12 17
310 106 613 13 12 17
312 105 610 13 13 17
313 105 607 13 13 18
315 105 605 12 11 17
317 104 602 13 12 18
319 104 600 13 12 18
322 104 599 13 12 18
324 104 597 15 14 20
326 104 596 15 14 20
328 104 594 16 15 21
331 104 593 15 15 23
333 104 592 16 16 24
336 104 591 16 16 24
339 104 590 16 16 24
342 104 590 17 17 23
345 104 590 19 18 24
349 105 591 61 46 42
352 105 591 81 53 40
355 105 591 90 57 42
359 105 591 97 60 44
362 105 592 98 62 46
366 106 592 99 64 45
368 106 591 102 67 47
372 106 591 104 67 48
376 106 592 106 68 49
379 106 592 109 67 51
383 107 592 107 66 47
386 107 592 106 65 47
390 107 593 108 67 49
394 107 593 107 68 49
398 108 594 107 66 48
402 108 595 119 88 70
410 110 601 142 114 103
243 63 339 111 76 57
241 62 333 130 104 87
238 60 326 141 115 102
234 59 318 142 113 105
232 58 312 142 114 103
231 57 308 145 115 105
230 57 304 140 107 98
230 57 302 130 91 79
231 57 301 139 107 108
232 56 299 142 117 130
231 56 296 143 118 129
230 55 292 137 110 119
228 54 287 140 110 118
228 54 284 125 86 94
227 54 281 118 65 73
228 53 279 106 49 55
229 53 279 96 37 43
231 53 278 82 33 36
231 53 276 66 27 28
231 53 274 112 89 88
230 52 271 143 118 121
231 52 269 143 113 116
231 52 267 127 95 96
232 52 266 110 75 73
233 52 265 95 64 60
234 52 264 86 57 51
235 52 263 76 53 46
236 52 262 72 52 43
238 52 262 70 50 43
240 52 262 68 50 41
243 52 263 68 50 40
248 53 266 68 48 40
255 54 271 72 55 45
263 56 277 82 63 48
269 57 281 78 61 45
274 57 284 82 66 51
275 57 283 78 61 46
276 57 282 62 41 27
276 57 279 51 34 24
275 57 276 61 45 32
274 56 273 65 44 36
274 56 270 62 44 35
272 55 266 75 62 53
270 54 262 100 92 81
269 54 259 117 108 99
269 54 257 124 117 107
270 53 255 122 113 104
270 53 253 116 109 99
271 53 252 105 99 85
271 53 250 98 91 73
273 53 250 89 80 65
276 53 250 84 76 62
282 54 253 82 73 61
288 55 257 78 69 52
297 57 262 80 65 44
-994 254 1326 169 70 53
-986 253 1326 162 60 44
-978 253 1326 160 56 42
-971 253 1329 156 54 40
-965 253 1331 157 58 44
-959 253 1335 154 59 48
-953 253 1338 146 51 40
-948 253 1343 145 49 42
-943 253 1347 138 45 37
-940 254 1354 135 45 36
-935 255 1359 133 43 34
-932 256 1367 132 42 35
-930 257 1376 123 36 42
-1418 411 2232 37 104 109
-1329 408 2250 105 106 97
-216 114 678 53 82 142
-211 113 671 57 82 136
-206 112 666 36 64 114
-202 112 663 41 63 111
-198 111 660 45 63 111
-195 111 658 37 55 99
-192 110 656 35 52 96
-188 110 654 32 48 90
-185 110 654 28 43 81
-182 109 653 27 40 75
-179 109 652 28 41 73
-176 109 651 25 36 66
-173 109 651 18 27 58
-170 109 651 20 26 54
-168 109 652 20 26 52
-165 109 652 19 25 51
-163 109 653 14 20 46
-160 109 653 15 19 44
-157 109 653 15 19 44
-155 109 654 15 19 44
-152 109 654 14 18 37
-149 109 655 12 14 26
-147 109 656 12 14 25
-144 109 658 11 13 25
-142 109 659 10 12 23
-140 110 661 9 12 21
-137 110 662 9 12 21
-135 110 664 10 10 18
-132 110 666 10 10 18
-130 111 669 9 9 17
-128 111 671 8 8 16
-125 111 674 8 9 14
-123 112 676 7 8 13
-121 112 679 8 9 13
-118 113 682 8 9 13
-116 113 683 8 7 13
-113 113 685 9 10 14
-111 113 685 6 9 18
-108 113 684 11 13 28
-104 112 682 12 18 42
-101 112 679 18 25 56
-98 111 675 19 28 64
-94 110 669 25 36 76
-91 109 662 22 34 72
-87 107 653 26 38 78
-82 105 641 25 37 77
-78 103 628 26 40 79
-74 101 617 27 40 80
-71 100 609 27 41 80
-68 99 601 21 34 73
-65 98 597 23 34 71
-62 97 593 21 30 62
-59 97 591 19 24 54
-57 96 589 19 24 53
-54 96 589 20 25 55
-52 96 588 19 24 54
-50 96 588 18 23 53
-47 96 587 18 24 54
-45 96 587 17 22 52
-42 96 586 17 22 52
-40 96 586 15 20 50
-38 96 586 18 23 53
-35 96 585 18 23 52
-33 96 585 18 23 52
-30 95 584 18 23 52
-28 95 584 19 24 53
-26 95 583 17 22 52
-23 95 582 17 22 51
-21 95 581 20 25 56
-19 95 581 22 27 58
-16 95 580 22 27 60
-14 95 579 23 28 60
-12 94 578 21 26 58
-9 94 577 21 27 59
-7 94 576 18 24 56
-5 94 575 17 26 55
-2 94 574 16 25 55
0 94 573 17 26 57
2 93 572 17 25 58
5 93 571 19 27 60
7 93 570 21 27 59
9 93 569 22 28 61
11 93 568 19 27 60
14 93 567 22 30 64
16 93 567 24 30 63
18 92 566 24 31 63
20 92 565 21 30 63
23 92 564 23 32 65
25 92 562 22 33 65
27 92 561 22 31 65
29 92 560 21 30 63
31 91 559 21 29 62
33 91 558 23 31 62
36 91 557 26 32 64
38 91 556 26 32 64
40 91 556 26 32 64
42 91 555 23 29 61
44 91 554 27 33 65
47 91 554 28 34 67
49 91 553 32 38 70
51 91 553 29 35 68
53 90 552 28 34 66
55 90 551 27 33 67
57 90 549 30 36 70
59 90 548 31 37 71
61 90 546 30 36 70
63 89 545 29 37 70
65 89 543 23 34 66
68 89 542 27 36 69
70 89 541 28 36 69
72 89 540 28 34 68
74 89 539 26 35 68
76 88 538 28 37 70
78 88 536 26 35 68
80 88 535 26 35 67
82 88 534 25 31 65
84 88 534 25 33 64
86 88 534 20 27 57
88 88 534 22 29 58
91 88 534 23 28 58
93 88 534 21 26 55
95 88 534 20 25 54
97 88 533 20 24 51
99 88 533 17 22 48
101 88 533 17 21 46
103 88 532 16 21 43
106 88 532 17 20 43
108 88 532 17 20 42
110 88 532 16 21 41
112 88 532 14 19 39
114 88 532 15 20 41
117 88 532 14 18 40
119 88 532 14 16 37
121 88 532 15 17 38
123 88 532 13 18 38
126 88 532 12 17 37
128 88 531 14 19 39
130 88 531 13 18 38
132 89 531 15 21 41
134 88 530 15 22 42
136 88 530 15 20 41
139 89 530 14 19 39
141 89 530 13 18 40
143 89 530 13 18 40
146 89 530 13 18 40
148 89 530 14 19 41
150 89 530 16 20 45
152 89 529 17 21 46
154 89 529 15 21 45
156 89 528 15 21 45
158 89 527 16 22 46
161 89 527 15 21 46
163 89 527 18 23 47
165 89 526 18 23 45
168 89 527 18 21 42
170 89 528 16 19 37
173 89 528 16 17 36
176 90 530 16 18 36
179 90 532 16 18 33
182 91 534 15 17 30
185 91 537 16 18 31
189 92 540 16 18 31
193 93 544 17 17 31
196 93 547 16 18 31
200 94 550 15 17 30
203 94 553 18 17 31
207 95 557 18 17 31
212 96 562 18 17 31
216 97 567 19 18 32
221 98 572 18 18 31
225 99 576 19 19 29
230 100 581 18 18 28
234 101 586 15 17 29
239 102 590 16 18 30
243 102 593 16 19 29
247 103 597 19 19 31
251 104 601 19 19 29
256 105 606 19 19 30
261 106 610 19 19 29
266 107 615 18 18 28
271 108 620 16 19 28
276 109 625 15 18 27
281 109 629 15 18 27
286 110 632 13 16 23
290 111 635 13 14 20
295 112 639 11 12 16
299 112 641 10 9 13
302 112 641 10 10 12
304 112 638 11 11 13
306 111 635 11 11 11
306 111 630 10 10 12
307 110 625 11 11 13
308 109 621 11 11 13
309 109 617 11 11 13
311 109 614 12 11 16
313 108 611 13 12 17
314 108 608 12 11 16
316 107 605 12 11 16
318 107 603 12 11 17
320 107 601 13 12 18
322 107 599 12 13 17
324 107 598 12 13 18
326 107 596 13 14 19
329 107 595 14 14 22
331 106 593 15 15 23
334 106 592 15 15 23
337 107 592 18 17 25
339 107 591 18 17 22
343 107 591 17 16 22
346 107 591 63 45 40
349 107 591 74 52 41
352 107 591 87 54 38
355 108 591 92 59 46
359 108 591 97 62 46
362 108 591 99 64 45
365 108 591 101 66 46
368 108 590 103 66 48
372 109 591 105 67 48
375 109 591 106 68 49
378 109 590 106 69 50
382 109 590 106 68 49
385 109 590 106 65 47
388 109 590 106 65 48
392 110 590 108 66 50
395 110 589 108 74 57
398 110 589 142 115 100
403 110 591 145 115 107
404 110 588 145 116 108
240 63 334 124 94 75
237 62 327 139 112 99
232 60 318 143 115 104
229 59 311 146 113 108
227 58 306 144 115 107
227 58 303 147 116 106
227 58 300 141 108 99
228 58 299 134 93 86
229 57 298 142 114 114
230 57 296 139 124 135
229 57 293 136 113 129
229 56 290 135 107 115
228 56 286 134 103 108
227 55 283 123 80 90
227 55 281 108 56 64
228 55 280 98 42 48
230 55 279 86 35 39
231 55 278 75 30 34
231 55 276 60 27 27
230 54 273 115 95 94
231 54 271 139 119 121
230 53 268 139 111 115
230 53 266 124 94 96
231 53 265 104 69 68
232 53 264 87 57 55
234 53 264 78 55 52
235 53 263 72 52 49
236 53 262 67 51 47
238 53 262 66 47 41
240 53 262 66 47 41
243 54 263 67 47 40
248 55 266 64 44 35
254 55 270 67 49 39
262 57 276 75 57 45
268 58 280 75 58 43
273 59 283 79 61 47
275 59 283 64 44 33
278 59 283 56 37 27
277 59 280 47 33 24
276 58 277 56 39 31
276 58 274 58 39 32
274 57 270 57 40 32
271 56 265 70 57 48
269 56 261 102 94 83
268 55 258 118 109 100
268 55 255 120 113 103
269 55 254 117 109 99
269 54 252 111 105 93
270 54 251 102 94 83
271 54 250 92 85 73
274 55 250 84 74 61
277 55 251 79 70 55
284 56 255 80 71 56
292 57 260 78 66 47
-994 260 1325 177 76 58
-986 259 1325 173 72 54
-977 259 1325 167 64 48
-970 259 1327 155 53 39
-964 258 1329 152 50 36
-958 259 1333 147 52 34
-953 259 1337 145 50 35
-947 259 1341 142 48 40
-943 260 1347 137 42 36
-939 260 1353 134 41 36
-936 261 1360 135 42 35
-933 262 1367 128 40 36
-931 263 1376 112 35 41
-1429 418 2208 228 185 228
-1424 420 2221 175 221 236
-1416 420 2228 21 79 81
-1407 420 2233 84 88 85
-1328 418 2248 89 83 67
-215 117 676 58 82 144
-210 116 670 46 69 119
-206 115 666 40 66 108
-202 114 662 38 59 102
-198 114 659 38 57 100
-195 113 657 35 52 95
-191 113 655 32 49 91
-188 112 654 32 48 87
-185 112 653 30 45 81
